ply
format ascii 1.0
comment https://github.com/EricCJoyce
element vertex 512
property float x
property float y
property float z
property uchar red
property uchar green
property uchar blue
end_header
0.101340927184 0.0672183856368 0.2189052701 0 255 0
0.101655103266 0.0676244199276 0.220799908042 0 255 0
0.101323865354 0.0680829435587 0.228490531445 0 255 0
0.102264493704 0.0681886747479 0.230387493968 0 255 0
0.102734342217 0.0679979324341 0.219090640545 0 255 0
0.0348341315985 0.174390733242 0.1234113276 0 255 0
0.0351787991822 0.175316259265 0.122502893209 0 255 0
0.0349038466811 0.174991741776 0.124928280711 0 255 0
0.0921955704689 0.0677493363619 0.217828631401 0 255 0
0.0370620004833 0.175268113613 0.123785495758 0 255 0
0.100985348225 0.067628338933 0.215924695134 0 255 0
0.107385501266 0.0683824345469 0.228709369898 0 255 0
0.107389397919 0.0675409212708 0.227924704552 0 255 0
-0.0255003757775 0.172342956066 0.123717717826 0 255 0
0.0364409312606 0.174785986543 0.121402345598 0 255 0
0.15182466805 0.0680404230952 0.216588780284 0 255 0
0.0974432229996 0.0672276616096 0.21703787148 0 255 0
0.100473679602 0.0673610717058 0.231544107199 0 255 0
-0.0284772310406 0.1719699651 0.150566920638 0 255 0
-0.0167038012296 0.174428671598 0.118214733899 0 255 0
0.0551952421665 0.067804068327 0.216519385576 0 255 0
0.0936409533024 0.0670909583569 0.213812932372 0 255 0
0.101988792419 0.068021543324 0.232700005174 0 255 0
0.0382947921753 0.174657016993 0.124723598361 0 255 0
0.149536982179 0.0686467662454 0.217041522264 0 255 0
0.0374383963645 0.174290940166 0.120847061276 0 255 0
-0.031424254179 0.17201089859 0.126192137599 0 255 0
-0.0306248683482 0.171345740557 0.149639889598 0 255 0
0.100581638515 0.0674708411098 0.236144974828 0 255 0
-0.0159160345793 0.174067363143 0.116726972163 0 255 0
-0.0165237411857 0.17351770401 0.117691427469 0 255 0
-0.0172189306468 0.17392411828 0.157487869263 0 255 0
0.109078064561 0.0675033703446 0.229256823659 0 255 0
0.0984899699688 0.0675503835082 0.237955629826 0 255 0
0.0688739344478 0.0672576203942 0.214183032513 0 255 0
0.0479637645185 0.169964522123 0.114303164184 0 255 0
0.0607659444213 0.151379257441 0.115222960711 0 255 0
-0.0161760617048 0.173544988036 0.155528008938 0 255 0
0.151872515678 0.0681293830276 0.215027689934 0 255 0
0.107058666646 0.0674402788281 0.214940562844 0 255 0
-0.00315585359931 0.174375519156 0.161112472415 0 255 0
0.0569999963045 0.0670286938548 0.228293135762 0 255 0
0.0976106151938 0.0675824135542 0.237079694867 0 255 0
0.109020523727 0.067885145545 0.237955614924 0 255 0
0.0370723865926 0.174614682794 0.14763173461 0 255 0
0.155207753181 0.0657145008445 0.223511904478 0 255 0
0.034586161375 0.173873454332 0.147390782833 0 255 0
0.0375865474343 0.175276786089 0.14675667882 0 255 0
0.103143528104 0.067767880857 0.214961439371 0 255 0
0.127897039056 0.0676806494594 0.214999437332 0 255 0
-0.0306811109185 0.173114582896 0.12378552556 0 255 0
0.13036338985 0.0680363327265 0.217054873705 0 255 0
0.0966776162386 0.0672130584717 0.237959519029 0 255 0
0.153690800071 0.0685558691621 0.226170614362 0 255 0
-0.0289653688669 0.173792093992 0.0988321825862 0 255 0
0.104257456958 0.0676105245948 0.237607225776 0 255 0
0.134617641568 0.0680983662605 0.220655456185 0 255 0
0.100502938032 0.067282192409 0.214895412326 0 255 0
0.0361314974725 0.174155846238 0.147367820144 0 255 0
0.107806250453 0.0680536031723 0.235868036747 0 255 0
0.0408362597227 0.175071194768 0.0909905135632 0 255 0
0.10744459182 0.067306175828 0.233565062284 0 255 0
0.106852427125 0.0686150416732 0.237986192107 0 255 0
0.0350397229195 0.17469380796 0.149147093296 0 255 0
0.110237248242 0.0676462426782 0.213777452707 0 255 0
0.070492759347 0.16629780829 0.120586618781 0 255 0
0.115331247449 0.0677128583193 0.230843394995 0 255 0
0.152888521552 0.0676251277328 0.214462086558 0 255 0
-0.0172505639493 0.174024939537 0.116726972163 0 255 0
-0.0336437001824 0.172171339393 0.125116214156 0 255 0
0.110047183931 0.0671813935041 0.231353282928 0 255 0
0.0162244811654 0.173985674977 0.0986687391996 0 255 0
0.034397508949 0.175433114171 0.12013939023 0 255 0
0.0927744582295 0.0676656737924 0.223896563053 0 255 0
0.153732478619 0.0686335489154 0.224808230996 0 255 0
-0.0336190871894 0.172322049737 0.148294359446 0 255 0
0.154247924685 0.0672833621502 0.224296540022 0 255 0
0.0903921574354 0.0669410973787 0.22713662684 0 255 0
0.0442750155926 0.174681186676 0.121403850615 0 255 0
-0.0137066226453 0.174052670598 0.117204278708 0 255 0
-0.0316643230617 0.171290531754 0.148203238845 0 255 0
0.110761068761 0.0684003904462 0.231240093708 0 255 0
0.114828445017 0.0675907433033 0.216350108385 0 255 0
0.115304797888 0.0675471201539 0.233293160796 0 255 0
0.0481565371156 0.177317976952 0.0909975171089 0 255 0
-0.0321389324963 0.172453835607 0.125388562679 0 255 0
0.0509646236897 0.154331296682 0.121350765228 0 255 0
0.041034437716 0.177655979991 0.0884867459536 0 255 0
-0.0267004985362 0.173377335072 0.121796742082 0 255 0
0.120181076229 0.0680785402656 0.23181964457 0 255 0
0.0418593212962 0.175751805305 0.0903495103121 0 255 0
0.0567781887949 0.0667465850711 0.230570435524 0 255 0
0.0921030193567 0.0672641918063 0.225349158049 0 255 0
0.017630783841 0.174436792731 0.0973656848073 0 255 0
0.155967906117 0.0642495155334 0.222773566842 0 255 0
0.0899311751127 0.0680288225412 0.226620256901 0 255 0
0.036240529269 0.175444483757 0.14907976985 0 255 0
-0.0227165464312 0.173531219363 0.121398955584 0 255 0
0.043511249125 0.175113961101 0.114730082452 0 255 0
0.101233668625 0.0672220364213 0.234763592482 0 255 0
0.146579220891 0.0687119439244 0.215562134981 0 255 0
0.152508541942 0.0679158121347 0.213283747435 0 255 0
-0.0289100427181 0.172244861722 0.151607200503 0 255 0
-0.032010089606 0.173095032573 0.123454064131 0 255 0
-0.0321253351867 0.172012344003 0.150463223457 0 255 0
0.0366983748972 0.174788713455 0.145746096969 0 255 0
-0.027166929096 0.172259271145 0.152169018984 0 255 0
0.108891963959 0.0675757825375 0.213812932372 0 255 0
0.0709754377604 0.0670344308019 0.216635078192 0 255 0
0.108603879809 0.0677871182561 0.233662486076 0 255 0
0.10650023818 0.0676547288895 0.231510803103 0 255 0
0.117431230843 0.0685844346881 0.231648862362 0 255 0
0.0487467199564 0.182004913688 0.0880407616496 0 255 0
0.156417146325 0.064253538847 0.219433099031 0 255 0
0.0586101002991 0.0668321624398 0.229017108679 0 255 0
-0.0294359214604 0.174626350403 0.0992231741548 0 255 0
0.115531437099 0.0677096247673 0.214940562844 0 255 0
-0.019449794665 0.174150377512 0.0956584513187 0 255 0
-0.03029040806 0.172780200839 0.12254973501 0 255 0
0.0579863898456 0.0669397860765 0.228070259094 0 255 0
-0.142435908318 -0.0850408151746 0.253809630871 0 255 0
0.131577298045 0.0677526444197 0.217350676656 0 255 0
0.017456497997 0.174813166261 0.0927277952433 0 255 0
0.0479209087789 0.178374618292 0.0901829302311 0 255 0
0.0550212822855 0.0670411884785 0.227359324694 0 255 0
0.0374205894768 0.175523266196 0.148826494813 0 255 0
-0.0299600958824 0.173782378435 0.100069105625 0 255 0
-0.0179804749787 0.174500957131 0.095137372613 0 255 0
0.127818331122 0.0676288604736 0.231403663754 0 255 0
0.113086476922 0.0675342828035 0.23066611588 0 255 0
0.0794581547379 0.0675781592727 0.221855685115 0 255 0
0.126046255231 0.0676303431392 0.214096516371 0 255 0
0.0995094776154 0.0679710134864 0.217986807227 0 255 0
0.0433930419385 0.174546018243 0.134319230914 0 255 0
-0.137277141213 -0.0857170820236 0.260573536158 0 255 0
0.145319089293 0.0682776942849 0.215566530824 0 255 0
0.0469955727458 0.168181791902 0.117468319833 0 255 0
0.0700544789433 0.151302650571 0.116687446833 0 255 0
-0.132291674614 -0.0860895961523 0.26084074378 0 255 0
0.0551799759269 0.0667334645987 0.229780226946 0 255 0
0.0701499804854 0.153579697013 0.118034943938 0 255 0
0.107497155666 0.0673297345638 0.217736274004 0 255 0
0.134055018425 0.0685012191534 0.219285771251 0 255 0
-0.142394900322 -0.085106767714 0.255253344774 0 255 0
0.0343038477004 0.175287812948 0.150727331638 0 255 0
-0.134139701724 -0.0856686532497 0.254238516092 0 255 0
0.0615130998194 0.0668111518025 0.228383675218 0 255 0
0.0121049080044 0.199357062578 0.061903771013 0 255 0
0.089363694191 0.0671371221542 0.225453525782 0 255 0
-0.016477631405 0.173937231302 0.110012434423 0 255 0
0.0838080495596 0.122879825532 0.118638686836 0 255 0
0.15567779541 0.0635844618082 0.218825757504 0 255 0
0.131587028503 0.0681681632996 0.215078160167 0 255 0
-0.145340189338 -0.0842725932598 0.231357648969 0 255 0
0.13240455091 0.0685103312135 0.217699229717 0 255 0
0.111788742244 0.068057924509 0.236930310726 0 255 0
0.0153747275472 0.199439674616 0.0610738582909 0 255 0
-0.0135946711525 0.199079722166 0.0528826639056 0 255 0
0.0400273986161 0.173892855644 0.0922081694007 0 255 0
-0.0337921753526 0.172517031431 0.126135617495 0 255 0
0.139858156443 0.0679159462452 0.215059414506 0 255 0
-0.00217883544974 0.177247539163 0.0889925658703 0 255 0
0.0542174205184 0.0670883730054 0.218222796917 0 255 0
-0.143988966942 -0.0850777253509 0.257331311703 0 255 0
-0.142517894506 -0.0849089026451 0.250922203064 0 255 0
-0.0169149506837 0.202756464481 0.0506807900965 0 255 0
0.0791062489152 0.0668502748013 0.220171511173 0 255 0
0.111402124166 0.0677419304848 0.213812604547 0 255 0
0.118231259286 0.0685560107231 0.232435286045 0 255 0
0.0605209507048 0.0668597146869 0.229154720902 0 255 0
-0.127770096064 -0.0855014920235 0.259569317102 0 255 0
-0.0292595159262 0.176059395075 0.169234231114 0 255 0
0.0351420044899 0.174481078982 0.119929537177 0 255 0
0.0464658327401 0.169166475534 0.117144621909 0 255 0
0.0669035091996 0.0671229660511 0.215234532952 0 255 0
0.0141277834773 0.174351170659 0.0979286283255 0 255 0
0.12697416544 0.0688558369875 0.231673181057 0 255 0
-0.0173486042768 0.174548238516 0.109998457134 0 255 0
-0.0111290523782 0.174435868859 0.118270196021 0 255 0
0.0438024438918 0.174912616611 0.122605569661 0 255 0
0.0743568465114 0.0670526474714 0.216449320316 0 255 0
0.0187798440456 0.174411386251 0.0992088243365 0 255 0
-0.0100510083139 0.175316542387 0.091233856976 0 255 0
0.0510111786425 0.15341694653 0.120423264802 0 255 0
-0.000792628503405 0.173505395651 0.160553053021 0 255 0
0.131743296981 0.0685804709792 0.219990029931 0 255 0
-0.0108089176938 0.174892470241 0.0927494987845 0 255 0
0.129481106997 0.068003706634 0.229263275862 0 255 0
0.0824743360281 0.126086801291 0.109457984567 0 255 0
0.0478979535401 0.185526609421 0.0861222594976 0 255 0
-0.00802973192185 0.174123466015 0.117258019745 0 255 0
0.0180571600795 0.199048995972 0.0616444945335 0 255 0
0.0997744575143 0.0672977343202 0.214157834649 0 255 0
0.111916214228 0.0677128210664 0.225572690368 0 255 0
0.0120273157954 0.200287535787 0.0646321251988 0 255 0
0.0703536048532 0.15446536243 0.124230854213 0 255 0
0.0537110827863 0.0668867304921 0.226860418916 0 255 0
-0.0143396435305 0.200620695949 0.0503285601735 0 255 0
-0.0089966962114 0.176394358277 0.0900940522552 0 255 0
-0.0285436045378 0.173622950912 0.103054590523 0 255 0
0.0702555775642 0.15462307632 0.120778813958 0 255 0
0.068370886147 0.164500400424 0.128140881658 0 255 0
0.0698715522885 0.155143752694 0.126969978213 0 255 0
-0.00153944420163 0.184500828385 0.0854543372989 0 255 0
0.113273486495 0.0682212039828 0.238972261548 0 255 0
0.130725085735 0.0679083094001 0.221464142203 0 255 0
0.0967674404383 0.0674931257963 0.218366116285 0 255 0
0.0765982866287 0.0678111091256 0.223986819386 0 255 0
0.0770557895303 0.0669807344675 0.218267992139 0 255 0
0.0707010105252 0.163143321872 0.117892883718 0 255 0
-0.0132779693231 0.19918115437 0.0519198849797 0 255 0
0.0629241764545 0.15153118968 0.115824535489 0 255 0
0.0696728006005 0.165114089847 0.113047555089 0 255 0
0.0706534460187 0.156503856182 0.113169133663 0 255 0
-0.0277064777911 0.173638090491 0.0919725671411 0 255 0
0.13227532804 0.0679896175861 0.224143087864 0 255 0
0.0787295252085 0.0671968311071 0.218208625913 0 255 0
0.0669073238969 0.0670030489564 0.21698731184 0 255 0
0.0180197227746 0.17441791296 0.0955497995019 0 255 0
0.0693760290742 0.157054305077 0.128303572536 0 255 0
0.0537145510316 0.0668652653694 0.216810137033 0 255 0
0.0548764541745 0.0667491853237 0.217270255089 0 255 0
0.15745665133 0.065841011703 0.235589385033 0 255 0
-0.0148408412933 0.199536144733 0.05363573879 0 255 0
0.0901339426637 0.0676798298955 0.215939313173 0 255 0
-0.0105131333694 0.175647437572 0.0901087149978 0 255 0
-0.144643589854 -0.085393242538 0.255888342857 0 255 0
-0.14540065825 -0.0855439603329 0.250837892294 0 255 0
0.129253089428 0.0687619075179 0.219159945846 0 255 0
-0.0311780124903 0.176056146622 0.168637931347 0 255 0
0.0547902099788 0.0667462274432 0.21511285007 0 255 0
-0.00997010059655 0.173778116703 0.158211141825 0 255 0
0.0144723020494 0.174475684762 0.0961844399571 0 255 0
0.0660347640514 0.0669153407216 0.224142998457 0 255 0
0.0706219896674 0.167548254132 0.120292827487 0 255 0
0.0139225888997 0.199868574739 0.0656013265252 0 255 0
-0.0205640960485 0.174250096083 0.119510300457 0 255 0
0.0697919428349 0.144399657845 0.114014804363 0 255 0
0.012882264331 0.174673348665 0.095639526844 0 255 0
0.0774509683251 0.0670981481671 0.220492899418 0 255 0
-0.147566199303 -0.0845913887024 0.232725456357 0 255 0
0.0441553778946 0.174942791462 0.0930949375033 0 255 0
-0.146421432495 -0.0836971178651 0.229840949178 0 255 0
-0.148564338684 -0.0841468498111 0.234091803432 0 255 0
0.152970567346 0.0684799551964 0.217347934842 0 255 0
0.0134166199714 0.175090774894 0.0942930802703 0 255 0
-0.0192914865911 0.174492955208 0.109984472394 0 255 0
-0.00252763880417 0.185337677598 0.085102647543 0 255 0
-0.0340808369219 0.175493195653 0.167218253016 0 255 0
0.077034689486 0.0669216662645 0.222876682878 0 255 0
-0.0288920179009 0.173586964607 0.101339168847 0 255 0
0.156569242477 0.0663426294923 0.235250383615 0 255 0
0.12716729939 0.0681599751115 0.228934258223 0 255 0
-0.140951275826 -0.0851651355624 0.252162069082 0 255 0
-0.000746561447158 0.176993086934 0.0888857096434 0 255 0
0.130296215415 0.0684861838818 0.231857016683 0 255 0
0.017320279032 0.174891039729 0.0915275886655 0 255 0
0.0123633313924 0.197708547115 0.0610411390662 0 255 0
0.150247618556 0.0686976090074 0.219175562263 0 255 0
-0.0322135090828 0.181575745344 0.171127647161 0 255 0
-0.00333996489644 0.176481813192 0.0896867737174 0 255 0
0.131430029869 0.0679973214865 0.230220198631 0 255 0
-0.0283210072666 0.174697473645 0.0908609554172 0 255 0
-0.0345352105796 0.173712238669 0.0999719500542 0 255 0
0.0265670437366 0.200059592724 0.0654797852039 0 255 0
-0.00729251885787 0.174350261688 0.0993382558227 0 255 0
-0.0112049402669 0.174557954073 0.11559779197 0 255 0
0.0254720915109 0.200364276767 0.0665601566434 0 255 0
0.0628143325448 0.06661567837 0.236651778221 0 255 0
0.119631148875 0.0685774981976 0.236725568771 0 255 0
0.069884032011 0.153911113739 0.12837330997 0 255 0
0.0389435887337 0.177039846778 0.0875382348895 0 255 0
0.114050075412 0.067578651011 0.226916760206 0 255 0
0.00183666043449 0.173837572336 0.160540133715 0 255 0
-0.015669438988 0.201107606292 0.0525761172175 0 255 0
0.0824741646647 0.12484537065 0.110875941813 0 255 0
0.0504545941949 0.15356554091 0.117995269597 0 255 0
0.0411222726107 0.180394843221 0.0864233076572 0 255 0
0.153442949057 0.0679738745093 0.220782980323 0 255 0
0.0302638933063 0.19686844945 0.062629327178 0 255 0
0.04683945328 0.170844778419 0.114132277668 0 255 0
0.128102600574 0.0679653733969 0.217041522264 0 255 0
0.0162400864065 0.199879005551 0.0636337921023 0 255 0
-0.0490739010274 0.174491196871 0.0951468646526 0 255 0
0.143081337214 -0.0818325355649 0.188502907753 0 255 0
0.0133181996644 0.197924643755 0.0600653402507 0 255 0
0.154938668013 0.066305398941 0.21743530035 0 255 0
-0.00855646189302 0.174130514264 0.156944572926 0 255 0
0.070149756968 0.153842061758 0.113890297711 0 255 0
-0.012157744728 0.175996184349 0.0903074592352 0 255 0
-0.0158286970109 0.199649378657 0.0578277185559 0 255 0
0.12085544318 0.0676512941718 0.236650839448 0 255 0
0.119551084936 0.0682199075818 0.237955614924 0 255 0
0.0693378672004 0.166489213705 0.124411143363 0 255 0
0.0893590971828 0.0672817006707 0.223340302706 0 255 0
0.0242623612285 0.198936849833 0.0725415274501 0 255 0
0.023853590712 0.174681186676 0.109022036195 0 255 0
0.0234708487988 0.200352743268 0.0668263807893 0 255 0
-0.144754230976 -0.0852152556181 0.251992285252 0 255 0
0.0161248538643 0.174633845687 0.0947281196713 0 255 0
0.0746684595942 0.0669128745794 0.221528083086 0 255 0
0.122304670513 0.0679845958948 0.23663790524 0 255 0
0.0891726836562 0.0680521726608 0.236988782883 0 255 0
0.136994659901 0.0680625289679 0.215274915099 0 255 0
0.0242657419294 0.198829248548 0.0741142258048 0 255 0
-0.124392844737 -0.0858083218336 0.261197000742 0 255 0
0.0191552042961 0.174846097827 0.0957679226995 0 255 0
0.0263200383633 0.173917353153 0.161876887083 0 255 0
0.0498678684235 0.154471039772 0.118801154196 0 255 0
-0.0134432157502 0.174319237471 0.115580767393 0 255 0
0.0706008076668 0.157798334956 0.110395222902 0 255 0
-0.0503326505423 0.175534248352 0.0936324372888 0 255 0
0.0705128461123 0.169855326414 0.119157649577 0 255 0
-0.0358007438481 0.175636455417 0.166257590055 0 255 0
-0.0499953664839 0.175695881248 0.0914288386703 0 255 0
0.0203496217728 0.174933344126 0.110278137028 0 255 0
-0.017020329833 0.202176734805 0.0489709191024 0 255 0
0.0887874737382 0.0670643299818 0.222071304917 0 255 0
0.0187526755035 0.200872644782 0.0668554231524 0 255 0
-0.0554856173694 0.175111874938 0.123836323619 0 255 0
0.136008486152 0.0683219730854 0.215504363179 0 255 0
-0.0276114866138 0.175188839436 0.0900664925575 0 255 0
0.0830086320639 0.121586762369 0.113027863204 0 255 0
0.119541354477 0.0686032474041 0.235437706113 0 255 0
-0.054577190429 0.174450531602 0.121786467731 0 255 0
0.0695305839181 0.162938565016 0.10963870585 0 255 0
-0.00793301407248 0.177155032754 0.0885231494904 0 255 0
0.0697343572974 0.167413830757 0.113703541458 0 255 0
0.0308542829007 0.196465015411 0.0637252032757 0 255 0
0.0232887212187 0.198714971542 0.0733014419675 0 255 0
-0.130147010088 -0.0856108143926 0.256148666143 0 255 0
0.152495205402 -0.0833752453327 0.231398418546 0 255 0
0.0467502810061 0.187180295587 0.0851110294461 0 255 0
-0.0119569376111 0.19763828814 0.0528829842806 0 255 0
0.117700837553 0.0675455778837 0.230914264917 0 255 0
-0.0120615633205 0.199377283454 0.0657193139195 0 255 0
0.114362888038 0.0678111463785 0.221463814378 0 255 0
-0.0283472295851 0.1743016541 0.107535555959 0 255 0
0.0495999343693 0.153691351414 0.115761473775 0 255 0
-0.049044676125 0.175042748451 0.0927949622273 0 255 0
-0.135186225176 -0.0851622223854 0.254152745008 0 255 0
0.0239634532481 0.196468561888 0.0784447342157 0 255 0
0.0465903244913 0.170721068978 0.117638543248 0 255 0
-0.0537768043578 0.174339920282 0.12377306819 0 255 0
-0.0334779806435 0.173892185092 0.107507057488 0 255 0
-0.0213319808245 0.174423649907 0.109233677387 0 255 0
0.0219681877643 0.198751717806 0.0741797834635 0 255 0
-0.157060563564 -0.0579511299729 0.246177002788 0 255 0
-0.153676792979 -0.0553077831864 0.237650752068 0 255 0
0.142969042063 -0.0820415765047 0.19217017293 0 255 0
0.0707237645984 0.158808857203 0.11382804811 0 255 0
0.130753010511 0.0680864155293 0.226364806294 0 255 0
-0.0552627332509 0.175382360816 0.133647397161 0 255 0
-0.0570606328547 0.175456523895 0.115539588034 0 255 0
0.0212303865701 0.199672743678 0.0737553760409 0 255 0
0.0640021264553 0.0670935213566 0.236582964659 0 255 0
0.0699661523104 0.154040873051 0.127130553126 0 255 0
-0.0134030804038 0.19766458869 0.0564559735358 0 255 0
-0.0335725657642 0.1733109653 0.109080813825 0 255 0
0.121544525027 0.0678403154016 0.213914245367 0 255 0
0.0623709149659 0.0675634592772 0.236199557781 0 255 0
-0.026008028537 0.175130650401 0.0894782319665 0 255 0
0.0222867745906 0.174382358789 0.109425626695 0 255 0
0.0013226600131 0.176008626819 0.0893714353442 0 255 0
-0.0252410899848 0.187343642116 0.175955608487 0 255 0
-0.0557363666594 0.174645110965 0.13202483952 0 255 0
0.0821778103709 0.135121166706 0.10935395956 0 255 0
0.0368933305144 0.174641057849 0.0954470410943 0 255 0
0.0222935713828 0.19909478724 0.0751340687275 0 255 0
-0.15033826232 -0.0838194414973 0.229693546891 0 255 0
-0.0250582136214 0.186335906386 0.175480425358 0 255 0
0.0414150767028 0.176712304354 0.0889408737421 0 255 0
-0.0139742624015 0.176017522812 0.089152738452 0 255 0
0.0506339408457 0.152721092105 0.116108819842 0 255 0
-0.0114850420505 0.17416985333 0.155338987708 0 255 0
0.0147816063836 0.174819454551 0.0913942456245 0 255 0
0.0378857068717 0.174000233412 0.10640963167 0 255 0
-0.0559853315353 0.174904152751 0.130318909883 0 255 0
-0.0294238887727 0.173519179225 0.121275551617 0 255 0
-0.0345742478967 0.173775196075 0.0985949262977 0 255 0
-0.0347005799413 0.174076423049 0.107875145972 0 255 0
-0.0239019319415 0.173646003008 0.119172669947 0 255 0
0.070122346282 0.14806252718 0.113968111575 0 255 0
-0.00718887755647 0.190722078085 0.081609942019 0 255 0
0.0265805814415 0.197799116373 0.0616949126124 0 255 0
0.0426267310977 0.174582079053 0.124309077859 0 255 0
-0.00673071248457 0.191099956632 0.080140247941 0 255 0
0.0645128637552 0.0673003345728 0.225013405085 0 255 0
0.0688663944602 0.162549465895 0.127444878221 0 255 0
0.0695059746504 0.150348559022 0.126368522644 0 255 0
0.0701360106468 0.156714424491 0.122947327793 0 255 0
0.0407872162759 0.185504809022 0.185665354133 0 255 0
0.0249990280718 0.174930736423 0.108812332153 0 255 0
0.0176276750863 0.200096741319 0.0680650025606 0 255 0
0.0233655013144 0.194892674685 0.0792765617371 0 255 0
-0.00760558899492 0.190521225333 0.0806914046407 0 255 0
0.0568535886705 0.0670387819409 0.226098954678 0 255 0
0.0533828623593 0.0673635005951 0.223869428039 0 255 0
-0.0145416660234 0.200420022011 0.069661654532 0 255 0
0.119248338044 0.0678906217217 0.230022639036 0 255 0
-0.00954813417047 0.191562756896 0.0815441086888 0 255 0
-0.0107898442075 0.197614297271 0.0652966573834 0 255 0
0.0467621013522 0.169664949179 0.115636795759 0 255 0
0.0387159660459 0.186544701457 0.186656177044 0 255 0
-0.00893422588706 0.192032977939 0.0801450386643 0 255 0
0.0286190342158 0.195920452476 0.0600654184818 0 255 0
-0.0566841885448 0.0766301825643 -0.239071175456 0 255 0
-0.03470178321 0.173961728811 0.112579323351 0 255 0
0.112650200725 0.0679256394506 0.224749103189 0 255 0
0.0297193415463 0.18948033452 0.0816411674023 0 255 0
0.0438737571239 0.174371957779 0.118049584329 0 255 0
0.0885053947568 0.0675042122602 0.220910191536 0 255 0
0.00444543780759 0.178948432207 0.0870042145252 0 255 0
-0.148645207286 -0.085384003818 0.252831548452 0 255 0
0.0268615055829 0.197220399976 0.0768353566527 0 255 0
0.0475498884916 0.174079447985 0.110269919038 0 255 0
0.0928500294685 0.0674116387963 0.23736359179 0 255 0
0.112268902361 0.0676830038428 0.223399206996 0 255 0
-0.00872883293778 0.192566916347 0.0787391811609 0 255 0
-0.0379804037511 0.175510376692 0.165037557483 0 255 0
0.0158871263266 0.196763962507 0.0783766582608 0 255 0
0.0390833094716 0.175145417452 0.0979152545333 0 255 0
0.154378443956 0.0667065307498 0.216071456671 0 255 0
-0.0132574187592 0.197898760438 0.0541880987585 0 255 0
-0.0118652191013 0.174265697598 0.158611595631 0 255 0
0.0283122211695 0.195819661021 0.076826967299 0 255 0
0.0342613980174 0.186619058251 0.187975391746 0 255 0
-0.0606189519167 0.072017326951 -0.219658195972 0 255 0
0.127731576562 0.0680483132601 0.226327687502 0 255 0
-0.0108502516523 0.173219844699 0.155871227384 0 255 0
-0.0598656348884 0.071078017354 -0.218994319439 0 255 0
-0.0137101747096 0.200250849128 0.0671513080597 0 255 0
0.0315117202699 0.174312338233 0.103406228125 0 255 0
-0.015221696347 0.200387299061 0.0683434680104 0 255 0
0.127857610583 0.0682829171419 0.222212031484 0 255 0
-0.032343801111 0.187547966838 0.175745740533 0 255 0
0.0197145305574 0.198228731751 0.0606903359294 0 255 0
0.109118647873 0.0679098516703 0.223340302706 0 255 0
-0.0257592909038 0.188833728433 0.0825861468911 0 255 0
0.0059842071496 0.189603641629 0.0819245502353 0 255 0
-0.0551742613316 0.174554899335 0.120463773608 0 255 0
0.0301495585591 0.173957839608 0.10307110846 0 255 0
0.115824699402 0.068357899785 0.239197328687 0 255 0
-0.0612275861204 0.0783435106277 -0.237988516688 0 255 0
-0.0245343092829 0.190500289202 0.081185542047 0 255 0
0.0956078022718 0.068290323019 0.240113452077 0 255 0
0.0907352939248 0.0672822594643 0.235106095672 0 255 0
-0.0607229173183 0.070188306272 -0.21766936779 0 255 0
-0.0587247163057 0.0709358155727 -0.218787834048 0 255 0
0.0373315624893 0.186125695705 0.187361896038 0 255 0
-0.0085359448567 0.19042994082 0.0814319849014 0 255 0
0.0306545980275 0.174850955606 0.103628523648 0 255 0
0.0934026837349 0.0669684261084 0.219870626926 0 255 0
0.0689888298512 0.163753464818 0.127817794681 0 255 0
-0.0272118039429 0.181610658765 0.172939702868 0 255 0
0.110074780881 0.0678980946541 0.22139416635 0 255 0
0.0333529338241 0.187289178371 0.188261419535 0 255 0
0.0389497429132 0.185648009181 0.1875988096 0 255 0
0.0180290713906 0.198616310954 0.0600283481181 0 255 0
-0.050382681191 0.190235123038 0.0835463106632 0 255 0
0.125449299812 0.0685522630811 0.221500635147 0 255 0
-0.0534850507975 0.186772748828 0.0895846486092 0 255 0
0.0505673848093 0.0690098404884 0.202884286642 0 255 0
0.0335610769689 0.193411171436 0.0754625573754 0 255 0
0.011566135101 0.177414759994 0.0860536620021 0 255 0
0.0787001475692 0.184770613909 0.130113244057 0 255 0
0.0107278050855 0.199933335185 0.0660085231066 0 255 0
0.109075196087 0.067420989275 0.220076531172 0 255 0
-0.13954411447 -0.0854583233595 0.252420395613 0 255 0
-0.0173857677728 0.1729619205 0.152861461043 0 255 0
0.036576975137 0.186470374465 0.188188061118 0 255 0
0.0136765772477 0.196851089597 0.0782338157296 0 255 0
0.0296515095979 0.195138067007 0.0603400021791 0 255 0
0.072366297245 0.0676765739918 0.223986819386 0 255 0
0.06662825495 0.184504404664 0.161531358957 0 255 0
0.0434173569083 0.185758337379 0.183939397335 0 255 0
0.0613244622946 0.0669201314449 0.213155969977 0 255 0
-0.0156993195415 0.199749916792 0.0555380731821 0 255 0
0.0370433405042 0.177578523755 0.0869019702077 0 255 0
-0.0552340745926 0.175027340651 0.127359062433 0 255 0
0.0618779547513 0.0671213567257 0.227225407958 0 255 0
0.0781903341413 0.185104459524 0.129296660423 0 255 0
-0.0571854636073 0.0703227892518 -0.217991098762 0 255 0
0.0859855562449 0.0673390254378 0.235150173306 0 255 0
0.162905663252 0.0643374472857 0.246454760432 0 255 0
-0.0512637123466 0.185910075903 0.0886440500617 0 255 0
-0.152423769236 -0.0594705790281 0.242949947715 0 255 0
-0.00596790714189 0.176299408078 0.0887531265616 0 255 0
0.0514491125941 0.0685411170125 0.202817082405 0 255 0
0.0706731751561 0.0676323920488 0.223846003413 0 255 0
-0.0284882951528 0.173817574978 0.110370621085 0 255 0
0.0782049670815 0.184973657131 0.130970463157 0 255 0
0.0301439575851 0.174528956413 0.159967586398 0 255 0
0.0698900595307 0.170751109719 0.11708329618 0 255 0
-0.0293271820992 0.17445141077 0.103052482009 0 255 0
0.0454997979105 0.173691645265 0.130542993546 0 255 0
0.054171577096 0.0669415965676 0.220090299845 0 255 0
0.0429260544479 0.175091296434 0.130311012268 0 255 0
0.0533019043505 0.0674937367439 0.221018567681 0 255 0
0.0935902222991 0.067512691021 0.221931487322 0 255 0
0.0421881228685 0.174688532948 0.120327912271 0 255 0
0.0439492873847 0.174465969205 0.131340920925 0 255 0
0.0455508977175 0.174319133162 0.121626541018 0 255 0
0.0926422402263 0.0678094774485 0.220328435302 0 255 0
0.053220950067 0.0676239728928 0.218167707324 0 255 0
0.063056088984 0.0672463104129 0.226298198104 0 255 0
0.108185105026 0.0683154463768 0.219433411956 0 255 0
0.0463975034654 0.1744363904 0.128961980343 0 255 0
-0.00218954915181 0.173867419362 0.160437405109 0 255 0
0.0454896949232 0.174517571926 0.119372427464 0 255 0
0.0833097994328 0.122347429395 0.122154720128 0 255 0
0.0454718768597 0.174737200141 0.123578362167 0 255 0
