ply
format ascii 1.0
comment https://github.com/EricCJoyce
element vertex 649
property float x
property float y
property float z
property uchar red
property uchar green
property uchar blue
end_header
0.0619140714407 0.0375075638294 0.225122451782 0 255 0
0.0566898621619 0.0379197895527 0.223077625036 0 255 0
0.063867405057 0.037483047694 0.226011693478 0 255 0
0.103674419224 0.0378894470632 0.237555727363 0 255 0
0.110666066408 0.0385877341032 0.225642159581 0 255 0
0.0983352735639 0.0379124842584 0.225899651647 0 255 0
0.10368976742 0.0376528911293 0.240089133382 0 255 0
0.11446672678 0.0383757613599 0.228643193841 0 255 0
0.115794226527 0.0379328392446 0.229978621006 0 255 0
-0.0438040420413 0.0418471172452 -0.214371591806 0 255 0
0.121156513691 0.0385196879506 0.234921216965 0 255 0
0.0966377407312 0.0380809269845 0.225165516138 0 255 0
0.100646615028 0.0384242981672 0.246011212468 0 255 0
0.0963081866503 0.0377909690142 0.226267874241 0 255 0
-0.0449960455298 0.0415925197303 -0.211719617248 0 255 0
-0.045131765306 0.0417022779584 -0.213045582175 0 255 0
0.106862001121 0.0384288616478 0.227235108614 0 255 0
0.106819316745 0.038498762995 0.226039215922 0 255 0
0.059365991503 0.0367501713336 0.234497740865 0 255 0
0.0968427434564 0.037977412343 0.22801630199 0 255 0
0.0635765343904 0.0373124219477 0.227444514632 0 255 0
0.0637941360474 0.0376029089093 0.223960489035 0 255 0
0.0960944145918 0.0374188870192 0.229275166988 0 255 0
0.105289265513 0.0383880808949 0.224736064672 0 255 0
0.0982467383146 0.0378453209996 0.221453770995 0 255 0
0.102310992777 0.0377809070051 0.247056007385 0 255 0
0.104440711439 0.0379169769585 0.243756711483 0 255 0
0.0971959680319 0.0373504944146 0.245744630694 0 255 0
0.0623078234494 0.0376796796918 0.232462346554 0 255 0
0.110303521156 0.0378471910954 0.222500741482 0 255 0
0.107788346708 0.0379295088351 0.226218417287 0 255 0
0.098056524992 0.0376330949366 0.227257296443 0 255 0
0.113225035369 0.0381964631379 0.238058239222 0 255 0
0.100257478654 0.0375479869545 0.244680717587 0 255 0
0.105259358883 0.0383139066398 0.223199769855 0 255 0
0.0612153112888 0.0369637832046 0.233278021216 0 255 0
0.0966898798943 0.0375760383904 0.221512317657 0 255 0
0.103919178247 0.0379733666778 0.222731351852 0 255 0
0.115091085434 0.0384857617319 0.237849608064 0 255 0
-0.0458358675241 0.0422008037567 -0.210884287953 0 255 0
0.106112889946 0.0375800915062 0.226155400276 0 255 0
0.105252198875 0.038229804486 0.246039763093 0 255 0
0.101392634213 0.0379723683 0.248437926173 0 255 0
0.0602201297879 0.0377255529165 0.238090842962 0 255 0
-0.150768131018 0.0169452130795 0.190727233887 0 255 0
0.110659554601 0.0389992408454 0.234758585691 0 255 0
0.096890129149 0.03730103001 0.223625361919 0 255 0
0.113838762045 0.037837240845 0.225909858942 0 255 0
0.106080301106 0.0381004661322 0.245382130146 0 255 0
0.0952471494675 0.0373574979603 0.237879693508 0 255 0
0.0983330234885 0.0376104451716 0.24393761158 0 255 0
0.0851276665926 0.0370504036546 0.223272398114 0 255 0
0.117114104331 0.0380486026406 0.232044875622 0 255 0
-0.0696963518858 0.197183400393 0.14925442636 0 255 0
-0.150973543525 0.0129970554262 0.224055558443 0 255 0
0.0977154970169 0.0392457693815 0.159521237016 0 255 0
0.159140244126 0.0332340598106 0.237077996135 0 255 0
-0.150822684169 0.0155311143026 0.193635821342 0 255 0
0.111269637942 0.0388227961957 0.241602927446 0 255 0
0.118107736111 0.0381744727492 0.244587674737 0 255 0
0.115751229227 0.0382240228355 0.241106241941 0 255 0
0.0798057839274 0.19492380321 0.15237018466 0 255 0
0.115441851318 0.0386111699045 0.233136951923 0 255 0
-0.150978401303 0.0190755203366 0.19117192924 0 255 0
0.121844813228 0.0382227599621 0.242834895849 0 255 0
0.107502192259 0.0384516529739 0.246119171381 0 255 0
-0.151002168655 0.0178805962205 0.191584482789 0 255 0
0.096002086997 0.0378064103425 0.235542133451 0 255 0
0.136496499181 0.0377836748958 0.237497374415 0 255 0
0.128588885069 0.0382868349552 0.222963616252 0 255 0
0.102624453604 0.0382309481502 0.226013079286 0 255 0
0.00606734724715 0.185611560941 0.212965160608 0 255 0
0.115561336279 0.0384157188237 0.236481770873 0 255 0
0.110824465752 0.0387294925749 0.239374905825 0 255 0
0.00559190008789 0.187612473965 0.213002219796 0 255 0
-0.057540178299 0.173778027296 0.131789207458 0 255 0
0.078066803515 0.195477813482 0.156672760844 0 255 0
0.117286331952 0.0380228720605 0.227680593729 0 255 0
0.108873233199 0.0388327278197 0.237521037459 0 255 0
-0.0582050569355 0.195403650403 0.130930945277 0 255 0
-0.05787249282 0.194421038032 0.131050616503 0 255 0
0.156178683043 0.0368632823229 0.239603146911 0 255 0
0.119514532387 0.0377083569765 0.242423638701 0 255 0
0.0930124074221 0.0377865768969 0.22980736196 0 255 0
0.00955560803413 0.194739297032 0.211574748158 0 255 0
0.14142125845 0.0379524305463 0.230468317866 0 255 0
-0.151193365455 0.016316967085 0.223900049925 0 255 0
0.112669989467 0.0382292158902 0.240178734064 0 255 0
0.0988541468978 0.0372925363481 0.224277406931 0 255 0
-0.0586865097284 0.173611462116 0.133421078324 0 255 0
-0.0523759797215 0.0446905754507 -0.205954998732 0 255 0
0.142385408282 0.0382166020572 0.234072551131 0 255 0
-0.0670112445951 0.198305234313 0.140421286225 0 255 0
-0.0876599922776 0.0432330071926 0.136629670858 0 255 0
0.0226533897221 0.191316381097 0.211042672396 0 255 0
0.109016299248 0.0385987013578 0.241526067257 0 255 0
0.0614355355501 0.0370308309793 0.231193646789 0 255 0
0.117216549814 0.0386760830879 0.245844066143 0 255 0
0.0582436434925 0.0375816859305 0.220966130495 0 255 0
-0.150776147842 0.0177899841219 0.223019465804 0 255 0
0.143107920885 0.0386615470052 0.228823021054 0 255 0
0.141501560807 0.0380989909172 0.228352352977 0 255 0
-0.0833363085985 0.0420816205442 0.162857949734 0 255 0
-0.0871498137712 0.0442259423435 0.136625885963 0 255 0
0.117119424045 0.0378265567124 0.234651640058 0 255 0
-0.0342391431332 0.195251613855 0.186092376709 0 255 0
0.0365804359317 0.215378075838 0.107273869216 0 255 0
-0.150791168213 0.0153796384111 0.195762902498 0 255 0
-0.150986343622 0.0106932073832 0.224073961377 0 255 0
0.124445319176 0.0379184931517 0.235633328557 0 255 0
0.0829653590918 0.0368773639202 0.225945830345 0 255 0
-0.0639846399426 0.19849960506 0.150494843721 0 255 0
0.0595500431955 0.0376685447991 0.220314443111 0 255 0
0.14210049808 0.0387168526649 0.231231555343 0 255 0
-0.0840746834874 0.0432494133711 0.160451382399 0 255 0
0.136369809508 0.0387214533985 0.233930155635 0 255 0
-0.0841121301055 0.042233556509 0.160857081413 0 255 0
-0.150327920914 -0.0410894788802 0.188147306442 0 255 0
-0.0525850169361 0.0543515905738 -0.21356202662 0 255 0
-0.150791823864 -0.0108960391954 0.19436776638 0 255 0
-0.150893837214 -0.00869621243328 0.194770827889 0 255 0
0.151266172528 0.0388252660632 0.235300838947 0 255 0
-0.0884422212839 0.0432771630585 0.137260124087 0 255 0
0.0395038761199 0.212214007974 0.106217637658 0 255 0
0.115629032254 0.0378658212721 0.245274722576 0 255 0
0.10486137867 0.0377032868564 0.221147537231 0 255 0
-0.15080305934 -0.00651013664901 0.196813419461 0 255 0
0.0683240219951 0.174878105521 0.120487101376 0 255 0
0.113088779151 0.0385403931141 0.230390444398 0 255 0
-0.0357007719576 0.194252431393 0.185276269913 0 255 0
0.0386542901397 0.217695385218 0.104327008128 0 255 0
-0.150666028261 -0.00766907772049 0.198002427816 0 255 0
0.0762970671058 0.0378216207027 0.234731346369 0 255 0
0.0818016454577 0.192687407136 0.140128627419 0 255 0
-0.0833490788937 0.0430651828647 0.164397016168 0 255 0
0.139005377889 0.0381396524608 0.230684071779 0 255 0
0.0665766447783 0.0370178557932 0.229925245047 0 255 0
0.0618411749601 0.0377711988986 0.220504567027 0 255 0
-0.151103392243 0.00629759719595 0.220772176981 0 255 0
-0.150828674436 0.0189016405493 0.194478362799 0 255 0
0.0951075106859 0.0372632332146 0.222209393978 0 255 0
0.123807415366 0.0383295081556 0.243186801672 0 255 0
-0.0574797987938 0.173521071672 0.134820997715 0 255 0
0.0838124901056 0.0378732718527 0.224736064672 0 255 0
-0.150039240718 -0.0305052828044 0.20141492784 0 255 0
0.0685874372721 0.175157889724 0.119007796049 0 255 0
0.100474186242 0.0401144437492 0.120688192546 0 255 0
-0.034463185817 0.197130128741 0.186368763447 0 255 0
0.0905648246408 0.0393572039902 0.176981255412 0 255 0
0.116544388235 0.0381760895252 0.246953785419 0 255 0
0.159055426717 0.0321627892554 0.237086236477 0 255 0
0.118588857353 0.0376181267202 0.236653879285 0 255 0
0.0364539735019 0.207091018558 0.107239365578 0 255 0
0.07964836061 0.0374313518405 0.232501372695 0 255 0
-0.0635978505015 0.174950286746 0.130186453462 0 255 0
-0.150050625205 -0.0444354899228 0.189065724611 0 255 0
-0.150614112616 -0.0135330595076 0.199987620115 0 255 0
-0.0549617633224 0.0489139147103 -0.206799075007 0 255 0
0.0682031735778 0.0370798781514 0.229654982686 0 255 0
-0.151128649712 0.0211415085942 0.221459791064 0 255 0
-0.0729181841016 0.19527707994 0.139780893922 0 255 0
-0.151026561856 -0.0104056019336 0.200762704015 0 255 0
-0.150960311294 0.0072327661328 0.195919409394 0 255 0
0.0456540472806 0.199928551912 0.107049889863 0 255 0
0.138605430722 0.0389264523983 0.234109982848 0 255 0
0.0975239649415 0.0395417027175 0.157400414348 0 255 0
0.143188625574 0.0383677780628 0.235633328557 0 255 0
-0.0696439519525 0.197201535106 0.141127765179 0 255 0
-0.0663927793503 0.198039710522 0.149453788996 0 255 0
0.0960150435567 0.0414873994887 0.157378569245 0 255 0
0.09365645051 0.0379653051496 0.237927764654 0 255 0
0.0812088251114 0.195035368204 0.142469927669 0 255 0
-0.150840729475 -0.0108160320669 0.192998573184 0 255 0
0.0791905149817 0.0370310097933 0.234802156687 0 255 0
-0.150911688805 0.00405269628391 0.221613720059 0 255 0
0.140639930964 0.0391679517925 0.225527957082 0 255 0
-0.0538140013814 0.0472954548895 -0.206480368972 0 255 0
-0.150889083743 0.00847638212144 0.195261672139 0 255 0
-0.151207581162 0.00606200983748 0.194328799844 0 255 0
-0.0736705958843 0.195405453444 0.138063147664 0 255 0
0.0894846767187 0.0400043390691 0.176366880536 0 255 0
0.0774840340018 0.19686293602 0.157241046429 0 255 0
-0.15086196363 -0.0148575594649 0.200307920575 0 255 0
0.0691519230604 0.0374139882624 0.229606643319 0 255 0
0.0732851922512 0.0377024039626 0.237833559513 0 255 0
-0.0522037632763 0.0459809713066 -0.206426471472 0 255 0
-0.082355260849 0.0429274886847 0.164712116122 0 255 0
0.124172717333 0.0375861935318 0.240246877074 0 255 0
-0.151278495789 0.0151389306411 0.223635047674 0 255 0
-0.0571083389223 0.196521833539 0.129622608423 0 255 0
-0.0422145612538 0.171556040645 0.173673197627 0 255 0
0.0819249600172 0.0376716665924 0.226570665836 0 255 0
0.0815672799945 0.0374287180603 0.228329256177 0 255 0
-0.053589079529 0.173936873674 0.130160674453 0 255 0
0.0993351489305 0.0391179583967 0.156983152032 0 255 0
0.0811146646738 0.193195328116 0.150012850761 0 255 0
0.130776271224 0.0384541973472 0.223244994879 0 255 0
-0.0861056894064 0.0440401732922 0.139099165797 0 255 0
0.0792391747236 0.0371198169887 0.233520016074 0 255 0
0.0804779082537 0.194689720869 0.150754913688 0 255 0
-0.0726541131735 0.195281371474 0.150423556566 0 255 0
0.0784924924374 0.0377195030451 0.236546948552 0 255 0
0.114445567131 0.038137216121 0.241757556796 0 255 0
-0.0539832487702 0.174253374338 0.12904420495 0 255 0
0.0785905867815 0.0371164940298 0.225099503994 0 255 0
-0.0528918765485 0.173655420542 0.129044190049 0 255 0
0.152977883816 0.0378691963851 0.235503301024 0 255 0
-0.0655784979463 0.198167651892 0.142438530922 0 255 0
-0.150694444776 -0.0157659947872 0.198608368635 0 255 0
0.136071026325 0.0387162901461 0.229542374611 0 255 0
-0.0365417823195 0.0399854555726 -0.213491901755 0 255 0
-0.0349345616996 0.0399591438472 -0.214275166392 0 255 0
-0.071356728673 0.196108072996 0.150005429983 0 255 0
-0.0876631811261 0.0433660820127 0.135067373514 0 255 0
-0.0728383883834 0.195536851883 0.13675545156 0 255 0
-0.0599457547069 0.197114408016 0.147130906582 0 255 0
0.0531189516187 0.173042654991 0.171539783478 0 255 0
0.114537768066 0.0373246371746 0.227349191904 0 255 0
-0.0828625112772 0.0419332794845 0.164731666446 0 255 0
-0.150093868375 -0.0304159335792 0.199885860085 0 255 0
0.0786240696907 0.0378191582859 0.223911762238 0 255 0
0.13535913825 0.0389368534088 0.237842082977 0 255 0
-0.151012837887 0.00272619491443 0.194491401315 0 255 0
-0.0891041234136 0.0418979339302 0.140385121107 0 255 0
0.0353976711631 0.214334711432 0.107680261135 0 255 0
0.122986271977 0.0381267331541 0.239459231496 0 255 0
0.0647249221802 0.0369929298759 0.23864813149 0 255 0
0.119299843907 0.0385156236589 0.235124155879 0 255 0
0.0383948497474 0.206085577607 0.106595784426 0 255 0
0.109604507685 0.0378981865942 0.226187184453 0 255 0
-0.0429386720061 0.17163066566 0.172593876719 0 255 0
0.0568229109049 0.0367270410061 0.237823083997 0 255 0
-0.151422098279 -0.00402297871187 0.203991815448 0 255 0
0.112432874739 0.0384449698031 0.227714881301 0 255 0
0.0803920701146 0.0379479192197 0.222898244858 0 255 0
0.0784925222397 0.196956828237 0.151153072715 0 255 0
0.0803912058473 0.192339628935 0.152571439743 0 255 0
-0.149654820561 -0.0336477570236 0.200613453984 0 255 0
0.150984168053 0.0388135239482 0.224743515253 0 255 0
0.152522057295 0.0386723391712 0.229358196259 0 255 0
-0.150897353888 0.00148202036507 0.210870504379 0 255 0
-0.036478895694 0.0392155721784 -0.2144408077 0 255 0
0.119675524533 0.0382783934474 0.222710967064 0 255 0
0.0894809365273 0.0414143353701 0.17313618958 0 255 0
0.152817726135 0.0383970662951 0.230616122484 0 255 0
0.117805682123 0.0376530624926 0.228627353907 0 255 0
0.0279003195465 0.203048080206 0.104852043092 0 255 0
-0.0507238432765 0.0440205521882 -0.205937758088 0 255 0
-0.0361408628523 0.0398599356413 -0.211906418204 0 255 0
0.0222357325256 0.200853988528 0.10175511986 0 255 0
-0.151058405638 0.00614787545055 0.22298002243 0 255 0
-0.150748699903 -0.0180978104472 0.198659449816 0 255 0
-0.087829567492 0.0420328192413 0.157427728176 0 255 0
-0.150680780411 0.00556858209893 0.218780264258 0 255 0
0.127544283867 0.0385526679456 0.240281179547 0 255 0
0.0926196873188 0.0381225273013 0.236923709512 0 255 0
0.0676756426692 0.0375025086105 0.237605303526 0 255 0
0.158458769321 0.0348741263151 0.223012432456 0 255 0
0.0784150883555 0.195372253656 0.15572591126 0 255 0
-0.0087013291195 0.197705492377 0.117846034467 0 255 0
-0.150915965438 -0.0170238055289 0.198298275471 0 255 0
0.0785895586014 0.193930849433 0.158266752958 0 255 0
-0.0691743940115 0.042109683156 0.189517483115 0 255 0
0.140797659755 0.0386547930539 0.226463094354 0 255 0
-0.150006890297 -0.0491171292961 0.190551653504 0 255 0
0.0778378918767 0.037849240005 0.233945682645 0 255 0
-0.150971129537 -0.00605138717219 0.204110905528 0 255 0
-0.0578661300242 0.0494262836874 -0.20671634376 0 255 0
0.0370803363621 0.214508965611 0.107881985605 0 255 0
0.0638836696744 0.0375897102058 0.23909920454 0 255 0
0.146829009056 0.0382651425898 0.231305733323 0 255 0
0.0406864099205 0.205976516008 0.106268487871 0 255 0
0.0910875722766 0.0391571111977 0.176022812724 0 255 0
0.0842789039016 0.0377280935645 0.226570665836 0 255 0
-0.0645892471075 0.198889404535 0.145751297474 0 255 0
0.0802879408002 0.193470269442 0.153048262 0 255 0
0.151858597994 0.03870851174 0.23299305141 0 255 0
0.139250159264 0.0383233129978 0.227155417204 0 255 0
0.0988362580538 0.0389635562897 0.158654436469 0 255 0
0.098514713347 0.0401280596852 0.156403705478 0 255 0
-0.150259360671 -0.0318049862981 0.201637536287 0 255 0
0.0506832562387 0.199830636382 0.104058675468 0 255 0
-0.15031850338 -0.0316965319216 0.199836015701 0 255 0
0.0343412347138 0.214763611555 0.108002774417 0 255 0
0.0709269195795 0.177736207843 0.118997231126 0 255 0
-0.022078698501 0.172862708569 0.186016499996 0 255 0
0.152453809977 0.0383338555694 0.221128642559 0 255 0
-0.0705924108624 0.0408504083753 0.18909367919 0 255 0
0.0815344378352 0.193666428328 0.143286556005 0 255 0
0.0613145641983 0.0374357327819 0.23983694613 0 255 0
0.131590276957 0.0389829054475 0.222857773304 0 255 0
0.0927747264504 0.0435749106109 0.160358831286 0 255 0
0.083760343492 0.0375268161297 0.228786423802 0 255 0
-0.0285264272243 0.171619355679 0.152256086469 0 255 0
-0.150273516774 -0.0281732492149 0.199163749814 0 255 0
-0.0869558602571 0.0437648110092 0.142090916634 0 255 0
0.0671606957912 0.0373392030597 0.238592371345 0 255 0
-0.033050596714 0.171023234725 0.168249234557 0 255 0
0.134206846356 0.0385912805796 0.230056285858 0 255 0
0.128321006894 0.038641165942 0.230801746249 0 255 0
-0.0598807372153 0.196115761995 0.145420953631 0 255 0
-0.150582298636 -0.0128795867786 0.192089110613 0 255 0
0.151473194361 0.0381403416395 0.229243472219 0 255 0
0.1318462044 0.0385643392801 0.230021312833 0 255 0
-0.150424093008 -0.0315355323255 0.197026178241 0 255 0
0.0263823065907 0.202766776085 0.102837413549 0 255 0
0.101468414068 0.0374663472176 0.222973302007 0 255 0
0.0376868247986 0.218276038766 0.104017853737 0 255 0
0.121288754046 0.0383267514408 0.224039420485 0 255 0
-0.151030927896 0.000490792968776 0.222201615572 0 255 0
0.149223282933 0.0387777723372 0.221017122269 0 255 0
-0.0861662551761 0.0424289926887 0.157986283302 0 255 0
0.0977263897657 0.0401893258095 0.155463159084 0 255 0
-0.151060834527 0.00498334271833 0.223176583648 0 255 0
0.159221172333 0.0332208052278 0.224329397082 0 255 0
0.0542594380677 0.17320805788 0.169919848442 0 255 0
0.0800553187728 0.195400893688 0.145428851247 0 255 0
0.0988589599729 0.0411722175777 0.118769362569 0 255 0
-0.0340398102999 0.171486347914 0.169238701463 0 255 0
-0.0903407037258 0.040574144572 0.144066557288 0 255 0
0.0685576871037 0.0371564328671 0.237216055393 0 255 0
0.0442182458937 0.173157036304 0.151533603668 0 255 0
-0.0583588853478 0.0479301288724 -0.206122785807 0 255 0
-0.0819427296519 0.0441577769816 0.16149623692 0 255 0
0.0799525603652 0.037419103086 0.228979319334 0 255 0
0.156074881554 0.0363620556891 0.220993548632 0 255 0
-0.0863715708256 0.044492430985 0.1378903687 0 255 0
-0.0333887077868 0.0397239439189 -0.21407957375 0 255 0
0.094782307744 0.043308082968 0.152551218867 0 255 0
0.121319018304 0.0382070243359 0.240053892136 0 255 0
-0.149962976575 -0.0337400846183 0.199416816235 0 255 0
0.0113357184455 0.200292125344 0.0998887121677 0 255 0
0.155988052487 0.0372300706804 0.2366899997 0 255 0
-0.0884135663509 0.0417769812047 0.156167253852 0 255 0
-0.150910824537 0.00312241213396 0.218917176127 0 255 0
0.145770639181 0.0389582514763 0.230048418045 0 255 0
0.157624706626 0.0364463254809 0.235435605049 0 255 0
0.0955798402429 0.0405853651464 0.161715611815 0 255 0
-0.150898948312 0.00894383154809 0.217947944999 0 255 0
0.102203443646 0.0381216593087 0.157102584839 0 255 0
0.0287636853755 0.209486022592 0.102687157691 0 255 0
-0.0483398549259 0.173418387771 0.128788858652 0 255 0
0.0667881891131 0.0371278002858 0.224096626043 0 255 0
0.0760027915239 0.0376860722899 0.224736064672 0 255 0
-0.013708611019 0.198769971728 0.198571577668 0 255 0
-0.0163714401424 0.198522806168 0.195663586259 0 255 0
0.118373036385 0.0381480976939 0.231231555343 0 255 0
-0.0261313878 0.19695430994 0.191252365708 0 255 0
-0.0150923766196 0.198616862297 0.197378590703 0 255 0
-0.0839905291796 0.0454421378672 0.144192740321 0 255 0
0.147692203522 0.0385281927884 0.223133191466 0 255 0
0.0316800773144 0.20546105504 0.107223853469 0 255 0
0.0774316489697 0.19420710206 0.160111665726 0 255 0
0.0697442516685 0.0374441929162 0.238070949912 0 255 0
-0.0537760183215 0.0426063723862 -0.204945445061 0 255 0
0.0824056640267 0.037269949913 0.231419250369 0 255 0
0.0339324176311 0.203429222107 0.108691096306 0 255 0
-0.0568094588816 0.0507075935602 -0.206960946321 0 255 0
0.097530066967 0.0412441119552 0.154534965754 0 255 0
0.100297033787 0.038623239845 0.163058251143 0 255 0
-0.150982901454 -0.00751948403195 0.193725585938 0 255 0
0.108168050647 0.0386445075274 0.248787730932 0 255 0
0.0220291335136 0.201102003455 0.100258044899 0 255 0
0.145565584302 0.0384389013052 0.22396440804 0 255 0
-0.0645448714495 0.199020653963 0.144223853946 0 255 0
0.128949835896 0.0379264391959 0.232211858034 0 255 0
0.0806433036923 0.195238620043 0.1436534971 0 255 0
0.117250911891 0.0380990803242 0.224709063768 0 255 0
0.0623992905021 0.176381200552 0.170979514718 0 255 0
-0.0524631179869 0.049014993012 -0.20888492465 0 255 0
0.104215316474 0.0385890938342 0.247959569097 0 255 0
0.0384131632745 0.204957172275 0.106611050665 0 255 0
-0.00915732327849 0.192765280604 0.118167094886 0 255 0
0.00891949143261 0.200541511178 0.1010292992 0 255 0
-0.0885180532932 0.0406138896942 0.155568569899 0 255 0
0.101888455451 0.0382188595831 0.244763538241 0 255 0
-0.054478507489 0.0529375374317 -0.20946367085 0 255 0
0.141929581761 0.0380913354456 0.225833341479 0 255 0
-0.0647312924266 0.199162915349 0.148114651442 0 255 0
-0.1510733217 0.00431708106771 0.217089161277 0 255 0
0.0329629331827 0.202402427793 0.108963042498 0 255 0
-0.151182338595 0.0212006904185 0.220313608646 0 255 0
0.0633786246181 0.178229391575 0.169706121087 0 255 0
0.0989896506071 0.0384248048067 0.165018796921 0 255 0
-0.0492780990899 0.173992991447 0.128116622567 0 255 0
0.103656865656 0.0389145202935 0.137579739094 0 255 0
0.0248192735016 0.197588115931 0.196722567081 0 255 0
0.0963108316064 0.0390643104911 0.16826492548 0 255 0
0.137004941702 0.0390586033463 0.225788637996 0 255 0
0.0815686136484 0.192014694214 0.149016350508 0 255 0
0.0353290587664 0.205333694816 0.0839833244681 0 255 0
0.023124082014 0.173478573561 0.122412972152 0 255 0
-0.0524447858334 0.0500575862825 -0.209609702229 0 255 0
0.035765234381 0.212870016694 0.109275393188 0 255 0
0.0935042202473 0.0380318760872 0.225600942969 0 255 0
-0.0727376416326 0.195418000221 0.148085281253 0 255 0
-0.073080278933 0.195672899485 0.135091125965 0 255 0
0.101568706334 0.0382968261838 0.159019231796 0 255 0
0.0327193848789 0.215923070908 0.106307931244 0 255 0
0.100503198802 0.041013084352 0.12293638289 0 255 0
0.0798024982214 0.192502096295 0.154348984361 0 255 0
0.0906024128199 0.0422074943781 0.16990916431 0 255 0
-0.0530417338014 0.0511600114405 -0.209096834064 0 255 0
-0.151388436556 -0.000837640196551 0.207443356514 0 255 0
-0.150972917676 -0.00305916019715 0.195405691862 0 255 0
0.0935643240809 0.0379284508526 0.22683134675 0 255 0
-0.0687323361635 0.197395175695 0.139112174511 0 255 0
0.0247517116368 0.173119023442 0.121548011899 0 255 0
-0.0579744651914 0.192984446883 0.131383925676 0 255 0
-0.0397193916142 0.204974398017 0.108986385167 0 255 0
-0.0439110435545 0.172133639455 0.165723979473 0 255 0
-0.0486758165061 0.17297744751 0.132172524929 0 255 0
-0.0493560992181 0.196409970522 0.127995982766 0 255 0
0.0240420494229 0.173343896866 0.123368494213 0 255 0
-0.0683636516333 0.198373511434 0.144577875733 0 255 0
0.0317716598511 0.202373877168 0.108963042498 0 255 0
0.0881126374006 0.039290137589 0.180241540074 0 255 0
-0.15064021945 -0.0170838478953 0.201146289706 0 255 0
-0.0397739596665 0.204735130072 0.107147887349 0 255 0
0.0314123444259 0.206464111805 0.106882460415 0 255 0
0.159727796912 0.0350307002664 0.250763297081 0 255 0
-0.15139375627 0.00347726419568 0.21081854403 0 255 0
0.125329524279 0.0383767820895 0.224430039525 0 255 0
-0.0481765456498 0.173096016049 0.130921781063 0 255 0
-0.0704930722713 0.197587892413 0.138147622347 0 255 0
0.111365064979 0.0386666953564 0.244274392724 0 255 0
-0.0574237257242 0.0466611161828 -0.205667644739 0 255 0
0.0732875540853 0.0377312339842 0.223442539573 0 255 0
0.0707830637693 0.0374928675592 0.231210395694 0 255 0
-0.0601268336177 0.0496915690601 -0.207475721836 0 255 0
-0.14195728302 0.038255866617 -0.0272965319455 0 255 0
0.103759564459 0.0396280027926 0.13090851903 0 255 0
-0.0535545609891 0.19568747282 0.128908723593 0 255 0
0.137038961053 0.0390044264495 0.221208617091 0 255 0
-0.150890290737 0.0145020643249 0.220233008265 0 255 0
0.0899915397167 0.0424270555377 0.171187654138 0 255 0
0.101418830454 0.0393570363522 0.14815826714 0 255 0
0.0603415481746 0.0374581739306 0.246011197567 0 255 0
-0.0563476681709 0.198197379708 0.125618159771 0 255 0
0.0111169619486 0.20052023232 0.09868671 0 255 0
0.154332771897 0.0381369888783 0.236690014601 0 255 0
0.0728933289647 0.0373203456402 0.220287382603 0 255 0
-0.010604461655 0.200598105788 0.105939589441 0 255 0
0.0638925284147 0.177491977811 0.168514102697 0 255 0
0.0228022430092 0.201906681061 0.0990227162838 0 255 0
-0.0683218836784 0.198305204511 0.145747020841 0 255 0
-0.0251361057162 0.197365477681 0.193034872413 0 255 0
-0.151015758514 0.0014707025839 0.195817276835 0 255 0
-0.0727090463042 0.0420926623046 0.186082974076 0 255 0
0.13369192183 0.038441631943 0.234850734472 0 255 0
0.114877209067 0.038184646517 0.24844263494 0 255 0
0.0344512537122 0.216147512197 0.0861443430185 0 255 0
0.0478529296815 0.199409306049 0.0792517662048 0 255 0
0.0916152372956 0.0404157303274 0.174093812704 0 255 0
0.158217608929 0.034125957638 0.24519084394 0 255 0
0.0473526194692 0.198566257954 0.0774997919798 0 255 0
0.0583913177252 0.0374114252627 0.246011212468 0 255 0
-0.0466627366841 0.17279972136 0.134823992848 0 255 0
0.0655952841043 0.199424356222 0.118573985994 0 255 0
0.0798157304525 0.196426928043 0.14789660275 0 255 0
-0.0478591173887 0.171589493752 0.171693101525 0 255 0
-0.151068046689 0.00337960245088 0.21451574564 0 255 0
-0.0405634976923 0.204665407538 0.106407128274 0 255 0
0.0567040145397 0.0369409061968 0.236171662807 0 255 0
0.0974720269442 0.0387315116823 0.166712939739 0 255 0
0.133065134287 0.0386146120727 0.236743271351 0 255 0
-0.0333481132984 0.198562398553 0.194510772824 0 255 0
-0.0517187081277 0.0480197779834 -0.208501547575 0 255 0
0.145162567496 0.0390183180571 0.220677480102 0 255 0
0.0746287405491 0.19661539793 0.164957761765 0 255 0
0.0436892993748 0.201682046056 0.0984756723046 0 255 0
-0.0860165432096 0.0427226945758 0.154582366347 0 255 0
-0.0106620956212 0.199769601226 0.10457906872 0 255 0
0.0628151744604 0.037066154182 0.23980358243 0 255 0
-0.0848210081458 0.0374929904938 0.179726660252 0 255 0
0.0272159110755 0.208415642381 0.099120542407 0 255 0
-0.0638639107347 0.0518156029284 -0.21044242382 0 255 0
0.0177228860557 0.196563288569 0.208175167441 0 255 0
-0.0738669782877 0.195018529892 0.144460961223 0 255 0
0.103630557656 0.0385829135776 0.155701711774 0 255 0
0.0670995786786 0.198964849114 0.124388478696 0 255 0
-0.00934843346477 0.200182691216 0.114131778479 0 255 0
0.0351481549442 0.203180298209 0.0841888934374 0 255 0
-0.00823744479567 0.199733272195 0.113899178803 0 255 0
-0.055321328342 0.0535100437701 -0.208919808269 0 255 0
-0.0395226255059 0.199183911085 0.123931646347 0 255 0
-0.0434276387095 0.0412085205317 -0.218275919557 0 255 0
0.0629877522588 0.176839902997 0.169746801257 0 255 0
0.149153485894 0.0388165973127 0.232044875622 0 255 0
0.0603119283915 0.178309991956 0.17393155396 0 255 0
-0.0389328449965 0.204956233501 0.1058601439 0 255 0
-0.0168448276818 0.20284101367 0.118999920785 0 255 0
0.116335973144 0.0380462184548 0.220799863338 0 255 0
0.157707810402 0.0356552191079 0.243714615703 0 255 0
0.0652822628617 0.198058396578 0.118973813951 0 255 0
-0.150585025549 0.0112401526421 0.220316648483 0 255 0
0.128628745675 0.0379194058478 0.221840068698 0 255 0
0.0793364867568 0.0372974276543 0.230955734849 0 255 0
0.0754757300019 0.196903452277 0.162433683872 0 255 0
0.0935524106026 0.0438823737204 0.156970024109 0 255 0
0.0204103570431 0.172935083508 0.125196203589 0 255 0
0.12633317709 0.037895642221 0.224929466844 0 255 0
0.0252972692251 0.198665693402 0.196662187576 0 255 0
0.140917152166 0.0388728864491 0.223314329982 0 255 0
0.159103617072 0.0320893377066 0.225205227733 0 255 0
-0.0115169715136 0.200229659677 0.103179186583 0 255 0
0.0989082530141 0.0418204627931 0.125154331326 0 255 0
-0.0226314868778 0.194200247526 0.126120343804 0 255 0
-0.0402964241803 0.203536570072 0.105113469064 0 255 0
-0.0620010048151 0.0515434406698 -0.208460569382 0 255 0
0.0706544965506 0.0373650863767 0.238500937819 0 255 0
0.0763926878572 0.196128576994 0.159631699324 0 255 0
0.0263789370656 0.172922492027 0.138637140393 0 255 0
0.0640704855323 0.0377120301127 0.220002025366 0 255 0
-0.144879132509 0.0368667766452 0.258955180645 0 255 0
0.151639282703 0.0381580963731 0.228035852313 0 255 0
-0.046347822994 0.199605062604 0.11110290885 0 255 0
-0.0647735968232 0.0508429668844 -0.210789173841 0 255 0
-0.0462486222386 0.199442103505 0.109915971756 0 255 0
-0.0512928105891 0.195191130042 0.128430202603 0 255 0
0.082224778831 0.191975340247 0.145461261272 0 255 0
-0.0339767634869 0.173010602593 0.147420600057 0 255 0
0.100948728621 0.0388059578836 0.161097705364 0 255 0
0.0196432620287 0.173437431455 0.124284878373 0 255 0
0.157213404775 0.0356956459582 0.246273577213 0 255 0
0.0345800705254 0.204662531614 0.0835894495249 0 255 0
0.0650116726756 0.0375186279416 0.228826895356 0 255 0
-0.0349582098424 0.172220423818 0.147502079606 0 255 0
0.103565603495 0.0392739959061 0.136019557714 0 255 0
0.0265174023807 0.173048585653 0.136394575238 0 255 0
-0.0640079826117 0.0528272017837 -0.21084921062 0 255 0
-0.0520159304142 0.0489365980029 -0.20783932507 0 255 0
-0.0737145468593 0.194778427482 0.133904799819 0 255 0
0.15929287672 0.033049531281 0.225795060396 0 255 0
0.0746766924858 0.0368871204555 0.226651579142 0 255 0
0.0935375913978 0.037469509989 0.243711546063 0 255 0
0.0739126801491 0.0378317721188 0.23394164443 0 255 0
0.00483507616445 0.199248179793 0.0622839033604 0 255 0
-0.0152945425361 0.199511364102 0.120087832212 0 255 0
0.0212822463363 0.194080159068 0.209047183394 0 255 0
-0.0320008695126 0.197538778186 0.195665031672 0 255 0
-0.0129145151004 0.201808705926 0.103026308119 0 255 0
0.145413056016 0.0392251126468 0.237702652812 0 255 0
-0.0169627089053 0.199544712901 0.121260240674 0 255 0
0.0467589944601 0.200606331229 0.0994081944227 0 255 0
-0.0863066762686 0.0413014218211 0.159673735499 0 255 0
0.033546436578 0.21511413157 0.085451900959 0 255 0
-0.0742894411087 0.193852201104 0.144610628486 0 255 0
-0.0272676553577 0.194604322314 0.204372510314 0 255 0
-0.0579011291265 0.198090180755 0.127741426229 0 255 0
0.0824394375086 0.191835969687 0.143329054117 0 255 0
0.103293180466 0.0388735644519 0.154526844621 0 255 0
-0.0189587064087 0.200550377369 0.122115686536 0 255 0
0.153633922338 0.0380184017122 0.229855239391 0 255 0
-0.0200225375593 0.197805941105 0.124986253679 0 255 0
-0.0154833933339 0.198152542114 0.121284984052 0 255 0
0.0191594846547 0.173611298203 0.125297471881 0 255 0
-0.0737387314439 0.195932179689 0.134055659175 0 255 0
-0.0234935637563 0.194697827101 0.125969097018 0 255 0
0.0579876042902 0.0366406403482 0.244099974632 0 255 0
0.131440043449 0.0381544828415 0.239336177707 0 255 0
0.0596516355872 0.0365642979741 0.247227281332 0 255 0
-0.0528067052364 0.0498090423644 -0.207928717136 0 255 0
0.0946844816208 0.0403163582087 0.166073694825 0 255 0
0.0178586412221 0.173251658678 0.124661922455 0 255 0
-0.0368020609021 0.172871157527 0.126687213778 0 255 0
-0.0384608432651 0.206002771854 0.103770807385 0 255 0
0.157931506634 0.0353811979294 0.23299305141 0 255 0
-0.0309290625155 0.198034733534 0.196040377021 0 255 0
-0.0745715126395 0.195047676563 0.138732194901 0 255 0
0.0931623727083 0.0429601483047 0.15838034451 0 255 0
0.156489595771 0.0366798527539 0.227344989777 0 255 0
0.157067537308 0.0361588783562 -0.00605101883411 0 255 0
0.130906134844 0.0382831282914 0.221669182181 0 255 0
0.0924791097641 0.0430468283594 0.161574751139 0 255 0
-0.151140764356 -0.00990399438888 0.207936525345 0 255 0
0.0748817697167 0.196787893772 0.163622498512 0 255 0
-0.150469228625 0.027366315946 0.248981714249 0 255 0
-0.0655743479729 0.0460397712886 -0.208940088749 0 255 0
-0.0612595714629 0.176972210407 0.155525788665 0 255 0
-0.0672864764929 0.0450545810163 -0.209706068039 0 255 0
-0.0585234835744 0.041419364512 -0.201989606023 0 255 0
0.0153448125347 0.173424884677 0.133425369859 0 255 0
0.0576304532588 0.199827700853 0.114126622677 0 255 0
-0.0749535262585 0.0422269031405 0.181609421968 0 255 0
-0.0760478079319 0.0429117716849 0.179036080837 0 255 0
-0.0547700561583 0.19851115346 0.124939225614 0 255 0
-0.0557567551732 0.198909640312 0.124992251396 0 255 0
-0.0110472403467 0.19925878942 0.198458194733 0 255 0
-0.0591926239431 0.194964841008 0.141611263156 0 255 0
0.0917010009289 0.0393605418503 0.174995645881 0 255 0
0.0722631663084 0.18083409965 0.133458450437 0 255 0
-0.151154875755 0.0207640063018 0.197377979755 0 255 0
0.0719883516431 0.181170582771 0.141466170549 0 255 0
-0.0747744366527 0.0427513197064 0.180414140224 0 255 0
0.0990164503455 0.0406991504133 0.115335382521 0 255 0
-0.0360541082919 0.19523178041 0.201101914048 0 255 0
0.0329859256744 0.192209661007 0.207143187523 0 255 0
-0.0605316087604 0.198256984353 0.148507446051 0 255 0
0.0624204240739 0.0380072742701 0.222753509879 0 255 0
0.0929839387536 0.0395216867328 0.173465758562 0 255 0
-0.0461293123662 0.19509254396 0.172486171126 0 255 0
-0.0829374417663 0.0447153188288 0.1550745368 0 255 0
0.139411151409 0.038486994803 0.221669182181 0 255 0
0.0962089300156 0.0432725027204 0.148780211806 0 255 0
-0.0896335691214 0.0410725474358 0.149920538068 0 255 0
0.0721634924412 0.182070657611 0.131586968899 0 255 0
-0.0896362289786 0.0411835089326 0.148617893457 0 255 0
0.125016734004 0.0381975322962 0.221017122269 0 255 0
0.13286884129 0.0383301749825 0.221669182181 0 255 0
-0.0736536085606 0.194696605206 0.146384805441 0 255 0
0.0955745205283 0.0434475876391 0.150695756078 0 255 0
-0.0258972477168 0.195915490389 0.191526591778 0 255 0
-0.150800988078 0.0203810036182 0.219136938453 0 255 0
0.0968587324023 0.0428589768708 0.149418726563 0 255 0
0.0952048376203 0.0385086424649 0.17057774961 0 255 0
0.0956581756473 0.0389373339713 0.169571220875 0 255 0
0.0734781622887 0.196391120553 0.167883172631 0 255 0
-0.0896491184831 0.0413757786155 0.151755586267 0 255 0
0.101805925369 0.0400701314211 0.125481426716 0 255 0
0.0929144471884 0.0377462431788 0.228786423802 0 255 0
0.143335193396 0.0386366322637 0.221017122269 0 255 0
-0.0596503280103 0.197576418519 0.149404883385 0 255 0
0.112079374492 0.0387817062438 0.248281612992 0 255 0
0.0559847280383 0.0377967953682 0.233532130718 0 255 0
-0.0316482782364 0.196905747056 0.126128673553 0 255 0
0.0558202825487 0.0380657911301 0.228928655386 0 255 0
0.0747022032738 0.195659518242 0.165308564901 0 255 0
0.0988601371646 0.0421314612031 0.132994771004 0 255 0
0.0970437452197 0.0420417934656 0.144963875413 0 255 0
0.0968433395028 0.0430974178016 0.146864667535 0 255 0
-0.0588357262313 0.193206340075 0.146563276649 0 255 0
0.101636759937 0.0400641933084 0.123522378504 0 255 0
0.0673964172602 0.0378566272557 0.220314443111 0 255 0
0.0812746882439 0.195003315806 0.140347525477 0 255 0
0.0974448174238 0.038039971143 0.231822296977 0 255 0
0.077610835433 0.195294797421 0.158902868629 0 255 0
-0.0559045299888 0.178178787231 0.17156496644 0 255 0
-0.0613505207002 0.198110103607 0.144100531936 0 255 0
0.101184159517 0.0408337339759 0.125868871808 0 255 0
-0.150867789984 0.0204902663827 0.217267051339 0 255 0
0.056899856776 0.0372983552516 0.231010973454 0 255 0
0.0806397199631 0.193031489849 0.151801541448 0 255 0
-0.150798425078 0.0201809257269 0.20735655725 0 255 0
0.102959476411 0.0381677150726 0.151991546154 0 255 0
0.0787376239896 0.192477747798 0.157763823867 0 255 0
-0.059886328876 0.197140902281 0.144583493471 0 255 0
0.0615805350244 0.0375573076308 0.221962600946 0 255 0
0.0634827688336 0.0375040322542 0.222820952535 0 255 0
