ply
format ascii 1.0
comment https://github.com/EricCJoyce
element vertex 857
property float x
property float y
property float z
property uchar red
property uchar green
property uchar blue
end_header
-0.126310750842 -0.0338668264449 -0.51626843214 0 255 0
-0.121865689754 -0.0349504873157 -0.661950409412 0 255 0
-0.393777996302 -0.0352822169662 0.777328789234 0 255 0
0.0395616106689 -0.0566252097487 -1.11992406845 0 255 0
0.258857876062 -0.0584927387536 0.110307216644 0 255 0
-0.014448790811 -0.0271483846009 0.610256910324 0 255 0
0.445053756237 -0.0278254151344 0.128024756908 0 255 0
0.292780578136 -0.0341640673578 -0.499962598085 0 255 0
-0.465422511101 -0.0503064654768 0.931516230106 0 255 0
-0.338045030832 -0.0431110486388 0.778814792633 0 255 0
-0.499093174934 -0.0343913175166 0.92480546236 0 255 0
-0.522498071194 -0.0461090393364 -0.683782279491 0 255 0
-0.00728976819664 -0.0237152148038 0.451516717672 0 255 0
0.360771477222 -0.0253454148769 0.0723740458488 0 255 0
-0.144293233752 -0.0370813012123 -0.5317517519 0 255 0
0.268818080425 -0.0568640306592 -0.347792267799 0 255 0
0.451561540365 -0.0288413632661 0.0655442327261 0 255 0
0.0478730909526 -0.0389138907194 -0.57218682766 0 255 0
0.286716580391 -0.0313072912395 0.115020975471 0 255 0
-0.49686935544 -0.0345744788647 0.844203233719 0 255 0
0.29090243578 -0.0335315465927 -0.344457864761 0 255 0
0.291890889406 -0.0312388855964 -0.224809631705 0 255 0
0.0394928567111 -0.0269787758589 0.184767261147 0 255 0
0.416821688414 -0.0292228423059 0.0729806348681 0 255 0
-0.516185164452 -0.040672224015 0.891079902649 0 255 0
-0.13171441853 -0.0317510031164 -0.30832606554 0 255 0
-0.522221803665 -0.0397273227572 0.870490849018 0 255 0
0.0109412698075 -0.0468076728284 -1.16380500793 0 255 0
-0.146787837148 -0.0369688645005 -0.534243583679 0 255 0
0.282870173454 -0.0389522574842 0.111124560237 0 255 0
-0.524290442467 -0.0406947396696 0.891376137733 0 255 0
-0.474862158298 -0.0447477474809 0.980244219303 0 255 0
-0.499090194702 -0.0371259525418 0.983980596066 0 255 0
0.261627137661 -0.0556022562087 0.386297255754 0 255 0
-0.386206537485 -0.0370471663773 0.815699160099 0 255 0
0.370619416237 -0.0239866748452 0.127822205424 0 255 0
-0.129174783826 -0.0300472937524 -0.175896897912 0 255 0
0.371610760689 -0.0238711796701 0.125346332788 0 255 0
-0.056849449873 -0.0394914895296 -1.15448176861 0 255 0
0.403583884239 -0.0273128394037 0.115956053138 0 255 0
-0.521822690964 -0.0374978557229 0.822256565094 0 255 0
0.259455770254 -0.0584092736244 0.108515180647 0 255 0
-0.0844328477979 -0.0271322727203 0.523641347885 0 255 0
0.00471842382103 -0.0470553822815 -1.15859138966 0 255 0
0.293450623751 -0.0388890020549 -0.65155762434 0 255 0
-0.0844351351261 -0.025168960914 0.481156975031 0 255 0
0.0628924667835 -0.0621112510562 -0.577570915222 0 255 0
0.0625326260924 -0.0474928431213 -1.14776301384 0 255 0
0.254982054234 -0.0559469610453 0.224363654852 0 255 0
0.357518941164 -0.0211541876197 -0.187633171678 0 255 0
0.457716941833 -0.0290703866631 0.070645108819 0 255 0
0.137182712555 -0.051645450294 0.2131254673 0 255 0
0.40185624361 -0.0275084376335 0.120147898793 0 255 0
0.373865634203 -0.0251388251781 0.0682121366262 0 255 0
0.356525689363 -0.02113234438 -0.188129261136 0 255 0
0.354520589113 -0.0240150466561 0.043438769877 0 255 0
0.413138926029 -0.00756267178804 -0.0573408305645 0 255 0
-0.491280376911 -0.0360454656184 0.791547715664 0 255 0
0.461130410433 -0.0329208932817 0.0694290548563 0 255 0
-0.521557152271 -0.0432661809027 1.03170228004 0 255 0
-0.541459739208 -0.0515106059611 -0.39810782671 0 255 0
0.0343203060329 -0.0229221396148 0.350717574358 0 255 0
-0.5133472085 -0.0407435745001 -0.545816481113 0 255 0
-0.545671403408 -0.0621338151395 0.847086668015 0 255 0
-0.491444885731 -0.0360605381429 1.04572415352 0 255 0
-0.555011570454 -0.0968009233475 1.00470578671 0 255 0
-0.111707910895 -0.0238387007266 0.620964884758 0 255 0
-0.181689977646 -0.0355441197753 0.787993013859 0 255 0
-0.0516945011914 -0.0414453856647 -1.11207973957 0 255 0
-0.467181354761 -0.04462524876 0.893156290054 0 255 0
0.279080241919 -0.0408303402364 0.23629334569 0 255 0
0.258140176535 -0.0584603883326 0.109590314329 0 255 0
-0.392826139927 -0.037882167846 0.833611905575 0 255 0
0.0697183683515 -0.053814470768 0.34308975935 0 255 0
-0.0770184844732 -0.0238139629364 0.452010750771 0 255 0
-0.0794186815619 -0.0388045571744 -1.08526015282 0 255 0
-0.120492085814 -0.0278880745173 0.623764753342 0 255 0
-0.545671343803 -0.0622025057673 0.848573088646 0 255 0
0.464295476675 -0.0315829180181 0.0405510365963 0 255 0
-0.562768399715 -0.0923397094011 0.823368251324 0 255 0
-0.483218461275 -0.0330346040428 0.811203300953 0 255 0
0.459329664707 -0.0315883271396 0.0405510365963 0 255 0
-0.0718857645988 -0.0411276780069 -1.11943030357 0 255 0
-0.508440673351 -0.0412923805416 0.989300072193 0 255 0
0.342640310526 -0.0295455288142 -0.260256737471 0 255 0
0.285260736942 -0.046742182225 -0.651050746441 0 255 0
0.0422924906015 -0.0603750534356 -1.12333440781 0 255 0
-0.461383402348 -0.0548443906009 0.945190012455 0 255 0
-0.117607429624 -0.0238451249897 0.620964884758 0 255 0
0.357717424631 -0.0211035385728 -0.188724502921 0 255 0
0.13705599308 -0.0554020926356 0.379031002522 0 255 0
-0.52845954895 -0.0431424379349 -0.409645110369 0 255 0
0.380769729614 -0.0251258090138 0.0680931359529 0 255 0
0.288913816214 -0.0321103557944 0.386304557323 0 255 0
0.259049117565 -0.0562566593289 0.231161102653 0 255 0
0.256014317274 -0.05589819327 0.223332732916 0 255 0
-0.47980517149 -0.0441827364266 0.967901408672 0 255 0
-0.473111927509 -0.048193063587 0.970220923424 0 255 0
-0.0948792546988 -0.0256624817848 0.491590261459 0 255 0
-0.558841526508 -0.109416075051 -0.668619215488 0 255 0
-0.133886441588 -0.0267295315862 0.513761281967 0 255 0
-0.548710048199 -0.0646561831236 0.816978931427 0 255 0
0.476574510336 -0.0315255597234 0.0395991392434 0 255 0
0.342386066914 -0.0270236562937 -0.230215743184 0 255 0
0.378627181053 -0.0251611173153 0.0688066706061 0 255 0
-0.00918074324727 -0.0434241071343 -1.15287840366 0 255 0
0.361956238747 -0.0202060751617 -0.0388088338077 0 255 0
0.0374477915466 -0.0295125097036 -0.268161565065 0 255 0
-0.554955422878 -0.102548360825 -0.394048720598 0 255 0
0.0389355458319 -0.0392240062356 -0.988777041435 0 255 0
-0.478949785233 -0.0344515815377 0.841966032982 0 255 0
-0.122982755303 -0.0278688874096 0.623290896416 0 255 0
0.411653578281 -0.00763285532594 -0.0558571219444 0 255 0
0.284835427999 -0.0366696938872 0.231014326215 0 255 0
-0.164797186852 -0.0308413691819 0.771245658398 0 255 0
0.421343266964 -0.0153971910477 -0.141469657421 0 255 0
-0.536703109741 -0.0476163215935 -0.397646546364 0 255 0
0.0438007563353 -0.0603502094746 -1.12383651733 0 255 0
0.291890621185 -0.0311436448246 -0.226870566607 0 255 0
-0.116224437952 -0.025320770219 0.568311095238 0 255 0
0.334962069988 -0.0257753413171 -0.257403075695 0 255 0
0.141480848193 -0.0516407713294 0.213125541806 0 255 0
0.399164676666 -0.0280878692865 0.132622882724 0 255 0
-0.0162280648947 -0.0270681846887 0.608479559422 0 255 0
-0.530953466892 -0.0438361167908 -0.394693315029 0 255 0
0.445053368807 -0.0277462750673 0.126312211156 0 255 0
-0.00778427766636 -0.0236244369298 0.449540734291 0 255 0
-0.475857168436 -0.0387939363718 0.851385474205 0 255 0
0.256014853716 -0.0563746653497 0.233643114567 0 255 0
0.341149240732 -0.0271963365376 -0.226508229971 0 255 0
-0.466961115599 -0.0386473536491 0.848423242569 0 255 0
-0.486560970545 -0.0359982661903 0.790637493134 0 255 0
-0.467188358307 -0.038187418133 0.753847122192 0 255 0
0.28184056282 -0.0380757376552 0.261369347572 0 255 0
0.044296618551 -0.0261349845678 0.335857689381 0 255 0
0.26879170537 -0.0519954413176 0.223799750209 0 255 0
0.404124647379 -0.0280824694782 0.132622882724 0 255 0
-0.494313389063 -0.0343075506389 0.838487386703 0 255 0
0.276108413935 -0.0479032993317 0.389275968075 0 255 0
0.456847012043 -0.0318202674389 0.0455115623772 0 255 0
0.29045817256 -0.0310420431197 -0.229102879763 0 255 0
-0.117648027837 -0.0251251962036 0.564045488834 0 255 0
-0.556675434113 -0.0889228656888 1.08804666996 0 255 0
0.35865727067 -0.0255613550544 0.076996974647 0 255 0
-0.12628556788 -0.0343979112804 -0.42015761137 0 255 0
-0.125089615583 -0.0343966074288 -0.42015761137 0 255 0
0.270004659891 -0.0514185242355 0.380580455065 0 255 0
-0.530414879322 -0.0446959771216 0.97781509161 0 255 0
0.342384636402 -0.025721564889 -0.258391857147 0 255 0
0.338307887316 -0.0292835906148 -0.26602691412 0 255 0
-0.376695454121 -0.0368406362832 0.811454117298 0 255 0
-0.496017873287 -0.0365947335958 0.887939810753 0 255 0
0.0552768670022 -0.030855325982 0.353642314672 0 255 0
0.475338667631 -0.0314128175378 0.037130381912 0 255 0
0.371214330196 -0.0240684039891 0.129604756832 0 255 0
0.287852197886 -0.035835120827 0.382262080908 0 255 0
-0.167411416769 -0.0313116870821 0.781361401081 0 255 0
-0.0192537549883 -0.0399133600295 -1.1444671154 0 255 0
0.0404309555888 -0.0396364741027 -0.979816377163 0 255 0
0.279080152512 -0.0407478138804 0.23450756073 0 255 0
-0.517371356487 -0.0406187586486 0.889895021915 0 255 0
0.373860239983 -0.0201931130141 -0.0388088338077 0 255 0
0.376640379429 -0.0160596296191 -0.0435702204704 0 255 0
0.349556654692 -0.0203569568694 -0.0358359999955 0 255 0
-0.442902624607 -0.0553930066526 0.957497000694 0 255 0
-0.126783847809 -0.0343524478376 -0.421153128147 0 255 0
-0.556401133537 -0.0852224677801 1.09259772301 0 255 0
-0.448426544666 -0.0450403876603 0.987199544907 0 255 0
0.0453766211867 -0.0385709255934 -0.57966709137 0 255 0
0.287977457047 -0.0380755029619 -0.50005376339 0 255 0
-0.501312673092 -0.0355019047856 1.0334032774 0 255 0
-0.49790841341 -0.0344447232783 0.925989031792 0 255 0
0.342386424541 -0.0273663084954 -0.222801029682 0 255 0
0.0268977247179 -0.0225875843316 0.343303203583 0 255 0
0.0378123372793 -0.0346949920058 -0.5790989995 0 255 0
0.0620801150799 -0.0465775057673 0.355544418097 0 255 0
0.0839211046696 -0.0666802227497 0.791063964367 0 255 0
0.270210117102 -0.0481898523867 0.226101577282 0 255 0
-0.483375042677 -0.0340478755534 0.833125948906 0 255 0
-0.458216190338 -0.0550238713622 0.949148416519 0 255 0
0.396486103535 -0.0279442425817 0.129451826215 0 255 0
-0.526860773563 -0.0405195727944 0.887525141239 0 255 0
0.0392768122256 -0.0610745735466 -1.10826849937 0 255 0
-0.470145136118 -0.0476419329643 0.958364844322 0 255 0
0.251186698675 -0.0555677227676 0.385304003954 0 255 0
-0.126468732953 -0.0264931637794 0.508821189404 0 255 0
0.282365053892 -0.0362733229995 0.222378998995 0 255 0
0.403529793024 -0.0118144145235 -0.0501813329756 0 255 0
-0.523039102554 -0.0434046052396 1.03466284275 0 255 0
0.0492475368083 -0.0259010326117 0.330911785364 0 255 0
0.334618449211 -0.0255139730871 -0.263066917658 0 255 0
-0.482044160366 -0.0408289320767 0.979893326759 0 255 0
-0.392829567194 -0.0347336083651 0.765479743481 0 255 0
-0.0903677791357 -0.0266821496189 0.513761281967 0 255 0
0.419640183449 -0.0289851669222 0.0679039657116 0 255 0
-0.483609616756 -0.0359269268811 0.789163291454 0 255 0
-0.519747674465 -0.0368978269398 0.809321284294 0 255 0
-0.499427169561 -0.0411690920591 0.986844599247 0 255 0
-0.515737473965 -0.0390096344054 -0.414157539606 0 255 0
0.0224438160658 -0.0222497880459 0.335888683796 0 255 0
-0.528966069221 -0.0435478724539 1.03762328625 0 255 0
0.359342902899 -0.0253469627351 0.0723738893867 0 255 0
-0.53579646349 -0.0540328994393 1.09511303902 0 255 0
-0.478825479746 -0.0363330729306 0.79806470871 0 255 0
-0.508567810059 -0.0378035232425 0.998419344425 0 255 0
0.137183144689 -0.0520422756672 0.221712484956 0 255 0
0.358655720949 -0.0241369903088 0.0461749695241 0 255 0
0.035243421793 -0.031043805182 -0.573549926281 0 255 0
-0.496375769377 -0.0343459174037 0.83926898241 0 255 0
-0.496020436287 -0.0342306047678 0.836782097816 0 255 0
0.0310166105628 -0.0478283427656 -1.14124560356 0 255 0
-0.0180073417723 -0.0275399331003 0.618645846844 0 255 0
-0.0212588794529 -0.0399849638343 -1.14296495914 0 255 0
-0.12894064188 -0.0271807312965 0.523641347885 0 255 0
-0.0607105791569 -0.0262459684163 0.589639484882 0 255 0
0.407191216946 -0.0201842989773 -0.0382142961025 0 255 0
0.475052535534 -0.0285181310028 0.143721312284 0 255 0
-0.449161469936 -0.0676241368055 0.883548140526 0 255 0
0.0543712824583 -0.0337131544948 0.330843776464 0 255 0
-0.143095552921 -0.0372181944549 -0.528761327267 0 255 0
-0.524213731289 -0.0395482890308 -0.402701288462 0 255 0
-0.512219250202 -0.0356287769973 -0.402615368366 0 255 0
0.0411641336977 -0.0649983659387 -1.10793471336 0 255 0
-0.556948900223 -0.0934267565608 1.10088217258 0 255 0
-0.403914391994 -0.0382927395403 0.842235028744 0 255 0
0.139451116323 -0.0515162236989 0.210382550955 0 255 0
0.461814314127 -0.0331902913749 0.075274720788 0 255 0
-0.166558146477 -0.0311137456447 0.777098178864 0 255 0
-0.121203511953 -0.0279217064381 0.624475717545 0 255 0
-0.520172357559 -0.0394412279129 0.864348292351 0 255 0
0.0390453897417 -0.0471014082432 -1.15678679943 0 255 0
-0.0720733031631 -0.0236944332719 0.449540734291 0 255 0
-0.45398029685 -0.0522685311735 0.974243164062 0 255 0
-0.0844353735447 -0.0248152483255 0.558121025562 0 255 0
-0.445850789547 -0.0583342276514 0.936454892159 0 255 0
-0.545900464058 -0.0857631862164 1.0199277401 0 255 0
-0.0590024143457 -0.0264018084854 0.593051970005 0 255 0
-0.0904295817018 -0.0344128087163 -1.01131689548 0 255 0
-0.516876995564 -0.040572591126 0.88890761137 0 255 0
0.0330239757895 -0.0478029809892 -1.14174711704 0 255 0
-0.547680556774 -0.0645600557327 0.814922988415 0 255 0
-0.0573504753411 -0.0397465713322 -1.14897382259 0 255 0
-0.075539149344 -0.0248055625707 0.558121025562 0 255 0
-0.512597799301 -0.0354479327798 -0.406537622213 0 255 0
0.272357881069 -0.0481544695795 0.22538651526 0 255 0
-0.548055291176 -0.0749681144953 -0.398371815681 0 255 0
0.26779666543 -0.0519276335835 0.222308933735 0 255 0
0.0485810376704 -0.0473458729684 -1.15127205849 0 255 0
-0.0568031035364 -0.0345979519188 -1.00651836395 0 255 0
0.358611255884 -0.0113611733541 -0.0610473528504 0 255 0
-0.514248132706 -0.0426801219583 -0.673168599606 0 255 0
0.142134234309 -0.0520495735109 0.221987053752 0 255 0
-0.484522074461 -0.033306915313 0.817065179348 0 255 0
0.285845637321 -0.051115103066 -0.81026506424 0 255 0
-0.0191586297005 -0.0235911607742 0.448552668095 0 255 0
0.28503292799 -0.0349645130336 0.109502308071 0 255 0
-0.478816986084 -0.0441360287368 0.966913998127 0 255 0
-0.470144569874 -0.0481624379754 0.969628155231 0 255 0
-0.474908530712 -0.0387217141688 0.84984511137 0 255 0
-0.057250302285 -0.0266109053046 0.597617924213 0 255 0
-0.496373385191 -0.0365349240601 0.886637210846 0 255 0
0.0824384689331 -0.0667502805591 0.792545199394 0 255 0
0.134581625462 -0.055347673595 0.377795159817 0 255 0
-0.3930952847 -0.0353287793696 0.778352439404 0 255 0
-0.36849707365 -0.0367213152349 0.809065282345 0 255 0
-0.120494909585 -0.0252859927714 0.567457914352 0 255 0
-0.392069995403 -0.035280354321 0.77732872963 0 255 0
-0.385906636715 -0.0379202663898 0.834599375725 0 255 0
-0.0693916454911 -0.0381109528244 -1.1000328064 0 255 0
-0.509925603867 -0.0377742014825 0.828516721725 0 255 0
-0.131908640265 -0.0264534242451 0.507833123207 0 255 0
-0.465898811817 -0.0371339321136 0.815699160099 0 255 0
0.295469999313 -0.0257933475077 0.249764531851 0 255 0
-0.479181170464 -0.0365579649806 0.802922725677 0 255 0
0.290652781725 -0.0313164182007 -0.223161026835 0 255 0
0.359483391047 -0.0266427788883 0.100417509675 0 255 0
0.254868239164 -0.0564818009734 0.235934466124 0 255 0
0.436077356339 -0.0290002655238 0.0686179250479 0 255 0
-0.532724559307 -0.0450573824346 0.816345095634 0 255 0
0.391144424677 -0.0117135504261 -0.0526557415724 0 255 0
0.26388913393 -0.0581888779998 -0.234621733427 0 255 0
-0.521882891655 -0.036801584065 0.80718845129 0 255 0
-0.466594815254 -0.0382963493466 0.756218373775 0 255 0
-0.0586767829955 -0.0346332453191 -1.00579881668 0 255 0
-0.548055529594 -0.0747367143631 -0.403379142284 0 255 0
0.371919393539 -0.0160932540894 -0.0429538190365 0 255 0
-0.0191583316773 -0.0238651093096 0.454480707645 0 255 0
-0.0544012673199 -0.0346507802606 -1.00531852245 0 255 0
-0.513248801231 -0.0426328852773 -0.674167215824 0 255 0
0.361962884665 -0.0261821430176 0.0905081629753 0 255 0
-0.494597733021 -0.034261893481 0.837492644787 0 255 0
0.407199442387 -0.0277677215636 0.125884458423 0 255 0
0.293813109398 -0.0274752676487 -0.221587628126 0 255 0
-0.393775224686 -0.0378448702395 0.832782447338 0 255 0
-0.546735465527 -0.0858136713505 1.02100050449 0 255 0
0.409871250391 -0.00766222225502 -0.0552636384964 0 255 0
0.364337265491 -0.0203958153725 -0.0346469283104 0 255 0
0.343211531639 -0.0275272317231 -0.219299346209 0 255 0
-0.334425717592 -0.0471783019602 0.782293736935 0 255 0
-0.542162358761 -0.054558545351 0.852483332157 0 255 0
-0.116395570338 -0.0253761466593 0.569505393505 0 255 0
-0.554475188255 -0.0809084326029 0.830054998398 0 255 0
-0.484520345926 -0.0349030643702 0.85160446167 0 255 0
-0.495773106813 -0.0371989123523 0.985637485981 0 255 0
-0.477043271065 -0.0388226062059 0.851977944374 0 255 0
-0.169222012162 -0.0307100135833 0.768298983574 0 255 0
-0.0692542120814 -0.0232983548194 0.525654435158 0 255 0
-0.504023969173 -0.0396608635783 1.03871762753 0 255 0
0.383340924978 -0.0252021364868 0.0698053762317 0 255 0
-0.505011260509 -0.0397303029895 1.04019701481 0 255 0
0.37702447176 -0.0210494976491 -0.189439028502 0 255 0
0.475338459015 -0.0313443653286 0.0356490984559 0 255 0
-0.137610286474 -0.0513319931924 0.961431026459 0 255 0
-0.533708095551 -0.0471982359886 -0.406623005867 0 255 0
-0.521461367607 -0.03974416852 -0.398397773504 0 255 0
-0.159004583955 -0.0303092803806 -0.1709305197 0 255 0
-0.487486153841 -0.0331049226224 0.812624394894 0 255 0
-0.534905970097 -0.0476696714759 -0.396449744701 0 255 0
0.0270722638816 -0.0529303774238 -1.11555314064 0 255 0
0.0332440957427 -0.0610811412334 -1.10826849937 0 255 0
-0.514409601688 -0.037056285888 0.812876045704 0 255 0
-0.0180067736655 -0.027645079419 0.620921075344 0 255 0
0.292012184858 -0.0388706587255 -0.651988387108 0 255 0
-0.481550425291 -0.0407599881291 0.978413105011 0 255 0
-0.509925603867 -0.0380107536912 0.833635449409 0 255 0
0.275611996651 -0.0479496903718 0.390268117189 0 255 0
-0.156809985638 -0.0359103567898 -0.642002940178 0 255 0
-0.493652909994 -0.0360754281282 0.792140126228 0 255 0
-0.0560827478766 -0.0346304289997 -1.00579857826 0 255 0
-0.0603740438819 -0.0381843857467 -1.09823131561 0 255 0
-0.0785044953227 -0.0249183047563 0.560490787029 0 255 0
-0.499793171883 -0.0358345881104 1.04063808918 0 255 0
0.357628792524 -0.0254675261676 0.0749424025416 0 255 0
0.306194365025 -0.0299292188138 -0.506666839123 0 255 0
-0.104202538729 -0.0270042605698 0.605023562908 0 255 0
-0.0844251140952 -0.0341521799564 -1.01681518555 0 255 0
0.377842634916 -0.0118182543665 -0.050703432411 0 255 0
-0.390632718801 -0.0379376411438 0.834864020348 0 255 0
-0.0820156037807 -0.0388073921204 -1.0852599144 0 255 0
0.294614106417 -0.025912836194 0.252330005169 0 255 0
-0.0814692601562 -0.0239329524338 0.454480707645 0 255 0
-0.477045953274 -0.036358512938 0.798657119274 0 255 0
-0.502548694611 -0.0364957973361 0.801026940346 0 255 0
-0.530681729317 -0.0424293614924 0.844143152237 0 255 0
0.0361855998635 -0.0568367168307 -1.11542665958 0 255 0
-0.125974521041 -0.0263099912554 0.504869163036 0 255 0
-0.0610522888601 -0.0264513455331 0.594075620174 0 255 0
-0.537255465984 -0.055665936321 -0.561945199966 0 255 0
-0.528237223625 -0.0479097664356 -0.560333311558 0 255 0
0.139451190829 -0.0514473319054 0.208891823888 0 255 0
-0.493912309408 -0.0354938469827 1.0334032774 0 255 0
-0.519351303577 -0.0377233214676 0.827193677425 0 255 0
-0.55420333147 -0.0762971639633 0.814895749092 0 255 0
-0.448425918818 -0.0456081144512 0.999484658241 0 255 0
-0.472885459661 -0.0446771457791 0.97876304388 0 255 0
-0.508695721626 -0.0380661860108 0.834864020348 0 255 0
0.421784222126 -0.0288737844676 0.0655442327261 0 255 0
0.0294426139444 -0.025694033131 0.325965881348 0 255 0
-0.549395680428 -0.0644827485085 0.813209652901 0 255 0
-0.444275528193 -0.0622194707394 0.935947179794 0 255 0
-0.170967712998 -0.0312827266753 0.780650854111 0 255 0
-0.111722044647 -0.0257116928697 0.576876401901 0 255 0
-0.540022313595 -0.0546824559569 0.855215072632 0 255 0
0.304954439402 -0.0299305766821 -0.506666719913 0 255 0
0.0439147911966 -0.0295743606985 -0.266670823097 0 255 0
0.0510159656405 -0.0657567232847 -1.0912925005 0 255 0
0.421779096127 -0.024177165702 -0.0360865592957 0 255 0
0.270362377167 -0.051269505173 0.377364248037 0 255 0
0.136920973659 -0.0509688816965 0.367715120316 0 255 0
0.253743171692 -0.0558339506388 0.221889063716 0 255 0
0.366923332214 -0.0266346782446 0.100417509675 0 255 0
0.394204616547 -0.027978785336 0.130145549774 0 255 0
-0.511183857918 -0.0438021346927 1.04354429245 0 255 0
0.285313397646 -0.0369264446199 0.236581414938 0 255 0
0.423928827047 -0.0295743308961 0.0807539671659 0 255 0
0.37477478385 -0.0161560550332 -0.0415275916457 0 255 0
0.261130154133 -0.0556716509163 0.38778719306 0 255 0
-0.0603740699589 -0.038017872721 -1.1018345356 0 255 0
0.333186537027 -0.0254494361579 -0.264497220516 0 255 0
-0.513458609581 -0.0362598076463 -0.388989597559 0 255 0
0.0400818027556 -0.0297075528651 -0.4331150949 0 255 0
0.389624804258 -0.0290508419275 0.0686179175973 0 255 0
0.409376978874 -0.0288872923702 0.0655442327261 0 255 0
-0.559851050377 -0.1095103845 -0.666602253914 0 255 0
-0.370290130377 -0.036735098809 0.809321343899 0 255 0
0.262807369232 -0.0605695769191 -0.352367222309 0 255 0
-0.494397878647 -0.0361679382622 0.878742516041 0 255 0
-0.0819637998939 -0.0238193478435 0.452010750771 0 255 0
-0.526480674744 -0.0457295142114 -0.522852599621 0 255 0
-0.537525653839 -0.0502232909203 1.09725379944 0 255 0
0.409580230713 -0.0278475601226 0.127668216825 0 255 0
0.0224442631006 -0.0226609576494 0.344786018133 0 255 0
0.264037817717 -0.0700365379453 -0.655189871788 0 255 0
-0.548691213131 -0.0694786608219 0.836715459824 0 255 0
-0.474911123514 -0.0363561883569 0.798657059669 0 255 0
0.376836538315 -0.0204417388886 -0.0333586633205 0 255 0
-0.0567493662238 -0.0393849313259 -1.15678524971 0 255 0
-0.443779706955 -0.062173165381 0.934956848621 0 255 0
0.278087198734 -0.0408405922353 0.236491814256 0 255 0
0.282324761152 -0.0552848689258 -0.804736018181 0 255 0
0.400062024593 -0.0119554037228 -0.0472121611238 0 255 0
0.276317149401 -0.0442441739142 0.225482553244 0 255 0
-0.519094884396 -0.0364228487015 0.883676707745 0 255 0
-0.523452699184 -0.0387635231018 0.849606096745 0 255 0
0.269431710243 -0.0508084148169 -0.22496175766 0 255 0
-0.511444926262 -0.0365054830909 0.801026940346 0 255 0
-0.491240650415 -0.0346351824701 0.84564936161 0 255 0
-0.467675834894 -0.0445572994649 0.891674339771 0 255 0
-0.0478998795152 -0.0262320209295 0.589639484882 0 255 0
-0.117625430226 -0.0253774859011 0.569505393505 0 255 0
-0.504524409771 -0.0374790206552 0.822256565094 0 255 0
0.419640123844 -0.0290643423796 0.0696172192693 0 255 0
-0.048848696053 -0.0262823365629 0.590705931187 0 255 0
-0.50195556879 -0.0365499071777 0.802211821079 0 255 0
-0.0201822053641 -0.0267987027764 0.602555036545 0 255 0
-0.549219667912 -0.0873081833124 1.05328202248 0 255 0
0.414185464382 -0.0158152095973 -0.132592737675 0 255 0
0.0503563061357 -0.0393457897007 -0.985872745514 0 255 0
-0.336137264967 -0.0469826832414 0.778020441532 0 255 0
0.291652083397 -0.031095854938 -0.227910295129 0 255 0
-0.504802823067 -0.0363493040204 0.797803938389 0 255 0
-0.498940348625 -0.0361484996974 1.04745101929 0 255 0
-0.552440166473 -0.0723961442709 0.815140724182 0 255 0
-0.0143181486055 -0.0273088254035 0.61373180151 0 255 0
0.292541444302 -0.0342394635081 -0.498336732388 0 255 0
0.0542861148715 -0.030833536759 0.353147476912 0 255 0
0.275820314884 -0.0441759042442 0.223993584514 0 255 0
0.389340728521 -0.025314303115 0.0723738893867 0 255 0
-0.552182614803 -0.0876257866621 -0.632276594639 0 255 0
-0.0568497031927 -0.0392600856721 -1.15948915482 0 255 0
0.406476736069 -0.0201521031559 -0.0389278307557 0 255 0
-0.564711868763 -0.120835252106 -0.675510823727 0 255 0
-0.504778683186 -0.0360328257084 -0.393696814775 0 255 0
0.132761135697 -0.0556764602661 0.384866863489 0 255 0
-0.498845875263 -0.0355219915509 1.03389620781 0 255 0
-0.520175397396 -0.0366025976837 0.802922725677 0 255 0
0.292560756207 -0.0359546765685 -0.376602530479 0 255 0
0.291320353746 -0.0357842966914 -0.38031861186 0 255 0
-0.520339369774 -0.0381578952074 0.836574137211 0 255 0
-0.391643404961 -0.0347870737314 0.766664624214 0 255 0
-0.0621925592422 -0.0267303641886 0.600086450577 0 255 0
-0.187037453055 -0.0363371260464 0.889645040035 0 255 0
-0.466369897127 -0.0369382724166 0.811454117298 0 255 0
0.0494902655482 -0.03087275289 0.184646934271 0 255 0
-0.478949129581 -0.034763649106 0.848718881607 0 255 0
-0.508812904358 -0.0438980609179 1.04567587376 0 255 0
-0.190052703023 -0.0318019352853 0.87605458498 0 255 0
0.268786013126 -0.0552639663219 0.379145652056 0 255 0
0.0471369773149 -0.0344851575792 -0.414183825254 0 255 0
0.383713513613 -0.0119503391907 -0.0477069243789 0 255 0
0.373591810465 -0.020894786343 -0.192867711186 0 255 0
-0.438590377569 -0.0514623299241 0.957160294056 0 255 0
-0.0918462127447 -0.0233024731278 0.609829366207 0 255 0
-0.489964723587 -0.0361955761909 1.04868113995 0 255 0
-0.141886278987 -0.0507445670664 0.948618888855 0 255 0
-0.135900214314 -0.0513696037233 0.962285161018 0 255 0
0.137550920248 -0.0555500350893 0.3822440207 0 255 0
-0.550651490688 -0.0723941996694 0.815140724182 0 255 0
-0.49766176939 -0.0356026925147 1.03567039967 0 255 0
0.356187939644 -0.0247663985938 0.059736661613 0 255 0
-0.501318693161 -0.0363549701869 0.798008620739 0 255 0
-0.524290680885 -0.0404665842652 0.886439025402 0 255 0
-0.509922802448 -0.0348938256502 0.850806057453 0 255 0
-0.192099586129 -0.0319459326565 0.879122257233 0 255 0
-0.508478283882 -0.0377342998981 0.827687382698 0 255 0
-0.530681669712 -0.0425082594156 0.845850467682 0 255 0
0.37763735652 -0.0117141585797 -0.0529608167708 0 255 0
0.0343937836587 -0.0256886426359 0.325965881348 0 255 0
0.0270996633917 -0.0264201872051 0.172387897968 0 255 0
-0.196253702044 -0.0382857434452 0.931594252586 0 255 0
-0.102225594223 -0.0270249210298 0.605517268181 0 255 0
-0.455090552568 -0.0466655530035 1.02220964432 0 255 0
-0.441155195236 -0.0516624860466 0.961431026459 0 255 0
0.451564013958 -0.0311323963106 0.115120232105 0 255 0
-0.52222520113 -0.0366048254073 0.802922666073 0 255 0
-0.543218255043 -0.0793299749494 1.05001807213 0 255 0
0.262397617102 -0.0581445991993 -0.235615044832 0 255 0
-0.00778229162097 -0.0254507716745 0.489061057568 0 255 0
-0.530011951923 -0.054226718843 -0.677536070347 0 255 0
-0.509466648102 -0.0375984832644 0.824725091457 0 255 0
0.294486582279 -0.0318722613156 -0.380278915167 0 255 0
0.000903662818018 -0.0463552549481 -1.17383146286 0 255 0
-0.0720877870917 -0.0238510146737 0.622164785862 0 255 0
-0.489453464746 -0.0407229885459 0.977426230907 0 255 0
0.264038056135 -0.0699789077044 -0.656437039375 0 255 0
0.282854706049 -0.0519470274448 -0.792333424091 0 255 0
-0.0894288867712 -0.0342731252313 -1.01431596279 0 255 0
0.0204245243222 -0.027143266052 0.610967755318 0 255 0
-0.141031354666 -0.0506646893919 0.946910560131 0 255 0
-0.509666800499 -0.0437807813287 1.04311800003 0 255 0
-0.0713962391019 -0.0239505879581 0.624335765839 0 255 0
0.0799707174301 -0.0590050518513 0.79412317276 0 255 0
-0.0127274766564 -0.0255703032017 0.491531074047 0 255 0
0.263671606779 -0.0605287440121 -0.353230416775 0 255 0
0.0810315012932 -0.0667280554771 0.792030990124 0 255 0
-0.053592890501 -0.026698185131 0.599592745304 0 255 0
0.299205332994 -0.039028853178 -0.648395776749 0 255 0
0.0293723419309 -0.0230417437851 0.353189140558 0 255 0
-0.529494822025 -0.0422275364399 0.839803874493 0 255 0
0.131902098656 -0.0558360256255 0.388299524784 0 255 0
-0.44249111414 -0.062190067023 0.935352921486 0 255 0
-0.137638792396 -0.0540732555091 0.936130821705 0 255 0
-0.0538999959826 -0.0229530483484 0.603162109852 0 255 0
-0.519736409187 -0.0472470112145 1.03326880932 0 255 0
-0.479814976454 -0.0351705513895 0.77288544178 0 255 0
0.288068443537 -0.0323612205684 0.222476989031 0 255 0
-0.534645736217 -0.0438465736806 -0.394553989172 0 255 0
-0.0162273198366 -0.027752654627 0.623290896416 0 255 0
0.0537983626127 -0.0332653857768 -1.03274810314 0 255 0
-0.528631269932 -0.0425218008459 0.846191823483 0 255 0
0.38163253665 -0.0117559209466 -0.0519629865885 0 255 0
-0.505512654781 -0.0377036929131 0.827094912529 0 255 0
-0.557747781277 -0.102256044745 -0.485057890415 0 255 0
-0.187036171556 -0.0375191904604 0.915223896503 0 255 0
0.272937476635 -0.0580028183758 -0.661525130272 0 255 0
-0.0672146975994 -0.0236767791212 0.618509352207 0 255 0
-0.555282950401 -0.101878650486 1.02995884418 0 255 0
-0.0743839368224 -0.0239210035652 0.623625218868 0 255 0
-0.0577444694936 -0.0267027039081 0.599592745304 0 255 0
-0.460733532906 -0.0371056012809 0.815207779408 0 255 0
0.417896658182 -0.0117987720296 -0.0501813329756 0 255 0
-0.464423239231 -0.0369960740209 0.812750756741 0 255 0
0.262398093939 -0.0582880564034 -0.232510730624 0 255 0
0.289108395576 -0.0330844074488 0.407386749983 0 255 0
-0.0962949767709 -0.0268815718591 0.602555036545 0 255 0
-0.448426038027 -0.0455134958029 0.997437179089 0 255 0
0.487884521484 -0.0329302586615 -0.183592185378 0 255 0
-0.0794243589044 -0.036419712007 -1.0522480011 0 255 0
-0.538652062416 -0.0546577870846 1.02394974232 0 255 0
-0.366447359324 -0.0366717763245 0.808041512966 0 255 0
-0.512369096279 -0.0439676009119 1.0470969677 0 255 0
0.358986794949 -0.0261166878045 0.0890216678381 0 255 0
-0.14375680685 -0.0455058924854 0.919832527637 0 255 0
0.0345348306 -0.0260688420385 0.164960280061 0 255 0
-0.0725817158818 -0.0238971561193 0.623151600361 0 255 0
0.409372270107 -0.024534329772 -0.0286501608789 0 255 0
-0.141031861305 -0.0501910224557 0.936660826206 0 255 0
0.287572234869 -0.0342770293355 0.263921707869 0 255 0
0.363594174385 -0.0257838778198 0.0819285139441 0 255 0
-0.142569825053 -0.0455045998096 0.919832527637 0 255 0
0.41869020462 -0.0124926809222 -0.119765125215 0 255 0
-0.520723819733 -0.0390150658786 -0.414157539606 0 255 0
-0.452555090189 -0.0522340908647 0.973531424999 0 255 0
0.051308169961 -0.0332681015134 -1.03274798393 0 255 0
-0.449161201715 -0.0678532421589 0.888505756855 0 255 0
-0.518989384174 -0.0444531030953 -0.550296485424 0 255 0
0.375594198704 -0.0209190230817 -0.192296087742 0 255 0
0.482346683741 -0.034201182425 -0.0716029033065 0 255 0
0.0555286705494 -0.0344732031226 0.178081706166 0 255 0
0.418392211199 -0.0119125815108 -0.0477069206536 0 255 0
-0.550890564919 -0.0770135968924 1.0843309164 0 255 0
0.279372125864 -0.0424220971763 -0.236963927746 0 255 0
-0.470631599426 -0.0448280125856 0.982080757618 0 255 0
-0.508292376995 -0.0354432351887 -0.406537771225 0 255 0
-0.390635699034 -0.0352125540376 0.775895416737 0 255 0
0.358918279409 -0.0249023288488 -0.0218756757677 0 255 0
-0.526763260365 -0.0392144136131 0.859284937382 0 255 0
-0.535692155361 -0.046157065779 0.840071320534 0 255 0
0.279372394085 -0.0426521487534 -0.231985852122 0 255 0
0.285260975361 -0.0468086786568 -0.649611890316 0 255 0
-0.0918469578028 -0.0266485735774 0.597617924213 0 255 0
-0.483929425478 -0.0332652255893 0.816177010536 0 255 0
-0.494398623705 -0.0354838743806 0.863939940929 0 255 0
-0.473032474518 -0.0365512669086 0.802922666073 0 255 0
0.339153289795 -0.0260488465428 -0.251385897398 0 255 0
-0.369104117155 -0.0366242937744 0.806951463223 0 255 0
0.263671904802 -0.0607946962118 -0.347475379705 0 255 0
-0.513459563255 -0.0354011505842 -0.407570213079 0 255 0
-0.0794234797359 -0.0370907075703 -1.03772830963 0 255 0
0.0623425468802 -0.0494644828141 0.164168059826 0 255 0
0.474556595087 -0.0314586386085 -0.0465145856142 0 255 0
-0.0927426218987 -0.0257259048522 0.49301302433 0 255 0
-0.52017390728 -0.0380219146609 0.833635568619 0 255 0
0.0300851538777 -0.0528992787004 -1.11615502834 0 255 0
-0.0464763864875 -0.0261976160109 0.588928520679 0 255 0
0.286780148745 -0.0381320826709 -0.498857706785 0 255 0
-0.46915858984 -0.038338586688 0.757071912289 0 255 0
-0.554762005806 -0.0918829962611 1.06752812862 0 255 0
0.294346034527 -0.0472278185189 -0.809564113617 0 255 0
-0.196255251765 -0.0368672683835 0.900899648666 0 255 0
-0.0678307190537 -0.0232639554888 0.524943590164 0 255 0
0.0308796614408 -0.0568350628018 -1.11558759212 0 255 0
-0.523046851158 -0.0362903364003 0.880716145039 0 255 0
0.340348124504 -0.0275898482651 -0.218011826277 0 255 0
-0.181690335274 -0.035215575248 0.780883550644 0 255 0
0.0582078583539 -0.0539781264961 -0.584438741207 0 255 0
0.280354857445 -0.0409411564469 0.323339402676 0 255 0
-0.18391020596 -0.0323623046279 0.888325095177 0 255 0
0.383994877338 -0.0160773694515 -0.0430130548775 0 255 0
0.29409006238 -0.0335694663227 -0.343562215567 0 255 0
0.47207647562 -0.0284664221108 0.142532244325 0 255 0
0.45823353529 -0.0307246576995 0.106454268098 0 255 0
0.420669138432 -0.0291107222438 0.070645108819 0 255 0
-0.498154699802 -0.0336090661585 0.823282241821 0 255 0
0.359249085188 -0.0264446362853 0.0115062724799 0 255 0
0.290341436863 -0.0331968814135 0.40984967351 0 255 0
-0.542792379856 -0.0585847683251 -0.668150901794 0 255 0
-0.0619072951376 -0.0343586616218 -1.01181662083 0 255 0
-0.0585928335786 -0.0263351220638 0.591618597507 0 255 0
-0.449452847242 -0.0651611834764 0.914863228798 0 255 0
-0.138305619359 -0.0374893657863 -0.52278059721 0 255 0
-0.484520077705 -0.035153888166 0.857032060623 0 255 0
-0.521871328354 -0.0474464632571 1.03753447533 0 255 0
0.343209922314 -0.0259012114257 -0.254485040903 0 255 0
-0.141858011484 -0.0454380735755 0.918409764767 0 255 0
-0.183963432908 -0.0377049706876 0.919316411018 0 255 0
-0.10667347908 -0.0272351074964 0.60996067524 0 255 0
0.0338474102318 -0.0611361823976 -1.10706329346 0 255 0
-0.526862025261 -0.0393696650863 0.862642109394 0 255 0
-0.534701704979 -0.0468412712216 0.854900240898 0 255 0
0.0229870509356 -0.0274953041226 0.618645906448 0 255 0
-0.0143177779391 -0.0276494622231 0.621102869511 0 255 0
0.136340975761 -0.0557386651635 0.386297255754 0 255 0
-0.184476777911 -0.0362555347383 0.887939810753 0 255 0
-0.53964138031 -0.0547273941338 1.02543258667 0 255 0
-0.0777929127216 -0.0248846728355 0.559779763222 0 255 0
0.389796048403 -0.0291443355381 0.070645108819 0 255 0
-0.520163357258 -0.0477205775678 1.0435063839 0 255 0
-0.182222992182 -0.0374242030084 0.913281798363 0 255 0
0.292321890593 -0.0360125973821 -0.375354796648 0 255 0
-0.0585928373039 -0.0264713764191 0.594567000866 0 255 0
0.263214826584 -0.0611607283354 -0.508801698685 0 255 0
0.0503555238247 -0.0386268720031 -1.00142943859 0 255 0
0.0555448047817 -0.0369437560439 -1.03772830963 0 255 0
-0.0521929077804 -0.0229117907584 0.602309525013 0 255 0
0.473066091537 -0.0316437594593 -0.0425438843668 0 255 0
-0.141032636166 -0.0494805239141 0.921286225319 0 255 0
-0.0769190043211 -0.0343750044703 -1.01181662083 0 255 0
0.359150022268 -0.0248999129981 0.0626955851912 0 255 0
0.134476840496 -0.0516823902726 0.213861122727 0 255 0
-0.135525554419 -0.0580951534212 0.938592851162 0 255 0
-0.487004876137 -0.0360174402595 1.04489612579 0 255 0
0.449080467224 -0.029187720269 0.0729806348681 0 255 0
0.0449098236859 -0.0296192076057 -0.265676915646 0 255 0
-0.331857889891 -0.0549849420786 0.782046914101 0 255 0
-0.116560101509 -0.0255346950144 0.572932362556 0 255 0
0.457223832607 -0.0299260411412 0.0891491174698 0 255 0
0.340599954128 -0.0290033239871 -0.27203759551 0 255 0
0.039268694818 -0.0229167565703 0.350717633963 0 255 0
0.286402344704 -0.0347424671054 -0.233742564917 0 255 0
-0.139303326607 -0.0375365205109 -0.521783709526 0 255 0
-0.139118880033 -0.0293695926666 -0.190796047449 0 255 0
-0.141032367945 -0.0500015541911 0.932560861111 0 255 0
-0.131909653544 -0.0513915754855 0.962854623795 0 255 0
-0.111615985632 -0.0271264109761 0.607492148876 0 255 0
-0.494595229626 -0.0365603491664 0.887229263783 0 255 0
-0.177683874965 -0.0361076667905 -0.807461261749 0 255 0
0.0520867668092 -0.0393838509917 -0.985008358955 0 255 0
-0.523455321789 -0.0363790728152 0.798008620739 0 255 0
-0.499340057373 -0.0336650796235 0.824466407299 0 255 0
-0.488710254431 -0.0359012298286 1.04234135151 0 255 0
-0.487004816532 -0.0360830314457 1.0463155508 0 255 0
0.409870892763 -0.00733309192583 -0.062385737896 0 255 0
0.287629693747 -0.0335640385747 0.417730748653 0 255 0
-0.51934927702 -0.0395485758781 0.866690576077 0 255 0
-0.075417868793 -0.0343964658678 -1.01131689548 0 255 0
-0.0725753307343 -0.0232964977622 0.525536000729 0 255 0
0.14659447968 -0.0535648055375 -0.252828061581 0 255 0
-0.473478287458 -0.0448968224227 0.983502686024 0 255 0
-0.504778385162 -0.0363075956702 -0.387750983238 0 255 0
-0.477112650871 -0.0335268713534 0.821999371052 0 255 0
-0.483216106892 -0.0352017171681 0.858097791672 0 255 0
-0.530683100224 -0.0411604233086 0.816684484482 0 255 0
-0.146196886897 -0.0416520237923 0.920998871326 0 255 0
0.340346485376 -0.0261026285589 -0.250194013119 0 255 0
0.361034035683 -0.0249581057578 -0.0206188764423 0 255 0
0.290270060301 -0.0311934575438 0.112641423941 0 255 0
-0.516869425774 -0.0475313663483 1.03948950768 0 255 0
-0.333950281143 -0.0472545810044 0.783955574036 0 255 0
-0.1807410568 -0.0374225899577 0.913281857967 0 255 0
-0.184473991394 -0.0388166718185 0.943360626698 0 255 0
-0.141003742814 -0.045508146286 0.9199462533 0 255 0
0.343209981918 -0.0260995030403 -0.25019416213 0 255 0
0.294486939907 -0.0322033390403 -0.373114675283 0 255 0
-0.133313179016 -0.044837038964 0.905605196953 0 255 0
-0.126468971372 -0.0262648705393 0.503881156445 0 255 0
0.263615638018 -0.0553246811032 0.380337625742 0 255 0
0.401630342007 -0.0149195045233 -0.152270823717 0 255 0
-0.135876834393 -0.0448398254812 0.905605196953 0 255 0
-0.182170599699 -0.0322687514126 0.886341691017 0 255 0
-0.469928354025 -0.0368709638715 0.809913754463 0 255 0
0.144993901253 -0.0630655437708 -0.554986536503 0 255 0
-0.143786221743 -0.0506415590644 0.946345150471 0 255 0
0.297622084618 -0.0247541051358 -0.195763394237 0 255 0
-0.186982154846 -0.0312315411866 0.863784074783 0 255 0
-0.477047204971 -0.0352086052299 0.773774087429 0 255 0
0.423139870167 -0.0299631506205 0.0891491174698 0 255 0
-0.0177098996937 -0.0278227180243 0.624772012234 0 255 0
-0.490441381931 -0.0407696664333 0.978413105011 0 255 0
-0.190053313971 -0.031234882772 0.863784015179 0 255 0
0.340139091015 -0.0216315872967 -0.177712127566 0 255 0
-0.0493297837675 -0.0400618091226 -1.1419634819 0 255 0
0.0786852613091 -0.0589536987245 0.792981684208 0 255 0
-0.0776939466596 -0.0361302755773 -1.05847048759 0 255 0
0.144178926945 -0.0538063570857 -0.247657954693 0 255 0
-0.437972545624 -0.0411021821201 0.986844599247 0 255 0
-0.0745522305369 -0.0233214683831 0.526029765606 0 255 0
0.139783248305 -0.0509988032281 0.368429988623 0 255 0
0.303807735443 -0.03816049546 -0.66707777977 0 255 0
-0.197277888656 -0.0382395796478 0.930571138859 0 255 0
0.339154928923 -0.0275636073202 -0.218607768416 0 255 0
-0.18447548151 -0.0374375991523 0.913518607616 0 255 0
-0.455307275057 -0.0494064539671 0.996897161007 0 255 0
-0.530681848526 -0.0423110164702 0.841582298279 0 255 0
-0.172709167004 -0.0361022502184 -0.807461261749 0 255 0
-0.449278354645 -0.0467760413885 1.0247374773 0 255 0
0.469262063503 -0.032265227288 0.0554326176643 0 255 0
0.376887142658 -0.015945488587 -0.0460343062878 0 255 0
-0.508013486862 -0.0348825454712 -0.418664097786 0 255 0
-0.502053797245 -0.0369059406221 0.809913754463 0 255 0
0.290437787771 -0.0427269041538 -0.653197824955 0 255 0
0.28735435009 -0.035976652056 0.385313004255 0 255 0
0.0564101338387 -0.0369827598333 -1.03686392307 0 255 0
0.284403532743 -0.0549947097898 -0.810965836048 0 255 0
0.0444497577846 -0.0268589630723 0.182291388512 0 255 0
0.46710434556 -0.0322695635259 -0.0291425026953 0 255 0
-0.181630164385 -0.0375330075622 0.915650248528 0 255 0
0.02355459705 -0.0504306778312 -1.16972732544 0 255 0
0.463800698519 -0.0332568995655 0.0767628178 0 255 0
-0.182221651077 -0.0386555157602 0.939926445484 0 255 0
-0.064664490521 -0.0260485857725 0.585275113583 0 255 0
-0.0893776342273 -0.0249347072095 0.560589551926 0 255 0
-0.0794242620468 -0.0363717973232 -1.0532848835 0 255 0
0.49449712038 -0.0333415679634 -0.259154081345 0 255 0
-0.539492964745 -0.0537459887564 -0.518925845623 0 255 0
0.280368894339 -0.0425682403147 -0.23377802968 0 255 0
-0.53494566679 -0.0505999214947 1.02084648609 0 255 0
0.143143758178 -0.0535685531795 -0.252828210592 0 255 0
-0.532228589058 -0.0459248684347 0.835128366947 0 255 0
-0.408520996571 -0.0472749583423 0.867257654667 0 255 0
0.367915123701 -0.0265191141516 0.0979401767254 0 255 0
0.0223224386573 -0.0270262137055 0.608479559422 0 255 0
-0.0998534634709 -0.0269128251821 0.603147447109 0 255 0
-0.540178477764 -0.0565231889486 0.895043253899 0 255 0
-0.195855081081 -0.0382051952183 0.929860651493 0 255 0
0.418089479208 -0.00698587531224 -0.0697055608034 0 255 0
-0.466369837523 -0.0370039828122 0.812876045704 0 255 0
0.424786418676 -0.0297713447362 0.0850374028087 0 255 0
-0.550232350826 -0.101456351578 -0.671421706676 0 255 0
0.289832144976 -0.0355798341334 -0.384778052568 0 255 0
-0.106674097478 -0.0266647152603 0.597617924213 0 255 0
-0.141004353762 -0.044940084219 0.907653868198 0 255 0
-0.448424756527 -0.0466962605715 1.02303111553 0 255 0
0.460767656565 -0.0283688269556 0.140153944492 0 255 0
0.293004691601 -0.0365695692599 -0.532522380352 0 255 0
-0.494155138731 -0.035776052624 0.954886198044 0 255 0
0.264905005693 -0.0696577057242 -0.663367033005 0 255 0
-0.1727091223 -0.035863045603 -0.812637448311 0 255 0
-0.203098550439 -0.0473785735667 0.958957672119 0 255 0
-0.0659855902195 -0.0237889196724 0.620964944363 0 255 0
-0.202463701367 -0.0433532744646 0.956486701965 0 255 0
0.409579783678 -0.0274354144931 0.118749715388 0 255 0
0.0434351935983 -0.039592962712 -0.980687141418 0 255 0
0.421355307102 -0.0264730546623 0.0982025191188 0 255 0
0.290497273207 -0.0402283519506 -0.538026750088 0 255 0
-0.542925715446 -0.0572467856109 0.82601839304 0 255 0
0.0219496097416 -0.0227071847767 0.345774680376 0 255 0
-0.060373980552 -0.0381011329591 -1.1000328064 0 255 0
0.434186190367 -0.0240491051227 -0.0385653600097 0 255 0
-0.472398549318 -0.0377862788737 0.829662203789 0 255 0
-0.538383662701 -0.0541540645063 1.09767401218 0 255 0
-0.552182495594 -0.0877418890595 -0.629764258862 0 255 0
-0.434334725142 -0.0448542051017 0.983502686024 0 255 0
-0.0725723579526 -0.0260343775153 0.58478140831 0 255 0
0.254071474075 -0.0560323037207 0.22618894279 0 255 0
-0.43768659234 -0.0420803613961 1.00801825523 0 255 0
-0.202528834343 -0.0475160218775 0.961945354939 0 255 0
0.025036521256 -0.0274930689484 0.618645846844 0 255 0
-0.440679937601 -0.0515358783305 0.95870256424 0 255 0
0.145262822509 -0.0636333450675 -0.711929619312 0 255 0
0.38895201683 -0.0161863882095 -0.0405371822417 0 255 0
-0.180689454079 -0.0323582924902 0.888314187527 0 255 0
-0.477104485035 -0.0410515740514 0.984827518463 0 255 0
0.148032352328 -0.0535632409155 -0.252828061581 0 255 0
-0.532515108585 -0.0544605776668 -0.672534584999 0 255 0
-0.442275673151 -0.0467368736863 1.02405488491 0 255 0
0.262398600578 -0.0587662048638 -0.222164005041 0 255 0
-0.197043120861 -0.0357985831797 0.877755701542 0 255 0
-0.44322925806 -0.0464244820178 1.01727259159 0 255 0
0.420670092106 -0.0299658477306 0.0891492664814 0 255 0
0.29176273942 -0.0363416783512 -0.537483096123 0 255 0
-0.509667158127 -0.0437334999442 1.0420948267 0 255 0
-0.174698755145 -0.0365177802742 -0.798516511917 0 255 0
-0.201609030366 -0.0435494743288 0.960752487183 0 255 0
-0.45734333992 -0.0441083535552 1.05143904686 0 255 0
0.391724258661 -0.0276380330324 0.122713543475 0 255 0
-0.195795938373 -0.0318186953664 0.876281917095 0 255 0
-0.534232497215 -0.0498544052243 -0.518394351006 0 255 0
-0.0483273863792 -0.0400144346058 -1.14296495914 0 255 0
0.0556202717125 -0.0506739988923 -0.571380078793 0 255 0
-0.0459212101996 -0.0400395803154 -1.14236414433 0 255 0
-0.191281720996 -0.0312362201512 0.863784015179 0 255 0
-0.441656440496 -0.0512544550002 1.03720796108 0 255 0
-0.436469942331 -0.0447908192873 0.982080757618 0 255 0
-0.452125221491 -0.0466805770993 1.02260458469 0 255 0
-0.200004294515 -0.0381276272237 0.928084373474 0 255 0
-0.435731709003 -0.0515304915607 0.95870256424 0 255 0
-0.462513297796 -0.038231831044 0.839536488056 0 255 0
-0.442941963673 -0.0512649901211 1.03740549088 0 255 0
0.129303961992 -0.0523815490305 0.228868365288 0 255 0
0.400043308735 -0.0150815062225 -0.148802638054 0 255 0
0.333188712597 -0.0274323970079 -0.221587628126 0 255 0
0.476381182671 -0.0347125940025 -0.0606769546866 0 255 0
-0.172709211707 -0.0357833132148 -0.814362823963 0 255 0
0.399451971054 -0.0295854099095 0.0804170295596 0 255 0
0.293005257845 -0.0369755402207 -0.523737549782 0 255 0
0.414495766163 -0.0300200786442 0.0901773050427 0 255 0
0.269654363394 -0.070282407105 -0.818973302841 0 255 0
-0.383436203003 -0.037233106792 0.819787979126 0 255 0
0.376282095909 -0.0118440808728 -0.0501813329756 0 255 0
-0.501313447952 -0.0348186530173 1.01861834526 0 255 0
-0.135851144791 -0.040442109108 0.895061135292 0 255 0
0.147417858243 -0.06273522228 -0.562077343464 0 255 0
-0.45234015584 -0.0494580119848 0.998082756996 0 255 0
0.353291898966 -0.0249390434474 -0.0212137643248 0 255 0
0.494498461485 -0.0345765836537 -0.232429385185 0 255 0
-0.442689210176 -0.0565823949873 1.06785738468 0 255 0
-0.547288239002 -0.0705461874604 -0.409422248602 0 255 0
-0.514397382736 -0.0482815913856 1.05578196049 0 255 0
0.421783149242 -0.0278886351734 0.0442264638841 0 255 0
-0.44343662262 -0.0513111837208 1.03839349747 0 255 0
-0.460030198097 -0.0491806566715 1.07651793957 0 255 0
-0.449277073145 -0.0479588061571 1.05033147335 0 255 0
-0.0784149840474 -0.0359979383647 -1.06135106087 0 255 0
-0.490756750107 -0.0358562320471 1.04131937027 0 255 0
0.278492510319 -0.0544142723083 -0.654429137707 0 255 0
-0.181579455733 -0.0311469044536 0.86207985878 0 255 0
0.297622025013 -0.0245486348867 -0.20020955801 0 255 0
-0.499582141638 -0.0373595617712 0.819787979126 0 255 0
-0.345227360725 -0.0354126691818 0.865913629532 0 255 0
-0.197279021144 -0.037057518959 0.904992341995 0 255 0
-0.556878447533 -0.0974645614624 -1.0964294672 0 255 0
0.352291822433 -0.0179524719715 -0.172420561314 0 255 0
-0.141000956297 -0.0480644330382 0.97526204586 0 255 0
-0.0873986035585 -0.0268718861043 0.602555036545 0 255 0
0.40987432003 -0.0299635343254 0.08884485811 0 255 0
0.269210368395 -0.0544038675725 0.106689669192 0 255 0
0.142936676741 -0.0538077093661 -0.247657954693 0 255 0
-0.192989811301 -0.0358987785876 -0.220015540719 0 255 0
-0.448634177446 -0.0525178425014 1.06438207626 0 255 0
0.0582728348672 -0.0369446873665 -1.03764390945 0 255 0
-0.455523937941 -0.0522373206913 0.973531424999 0 255 0
0.396532893181 -0.0246692467481 -0.195269286633 0 255 0
0.138760894537 -0.0627846047282 -0.561212599277 0 255 0
0.0763046070933 -0.0589837655425 0.79357624054 0 255 0
0.498955607414 -0.0329250395298 -0.26806229353 0 255 0
-0.548635780811 -0.072990141809 1.08193814754 0 255 0
-0.200499489903 -0.0368740484118 0.900946378708 0 255 0
-0.196908190846 -0.042175129056 -0.338147372007 0 255 0
0.482009470463 -0.0312211513519 -0.0514780394733 0 255 0
0.0537419840693 -0.0343651771545 0.175702005625 0 255 0
-0.438176691532 -0.0462119951844 1.01279354095 0 255 0
0.287678539753 -0.0452236048877 -0.683854520321 0 255 0
0.330203562975 -0.0253700632602 -0.266285032034 0 255 0
0.292430639267 -0.0411073863506 -0.688195765018 0 255 0
0.47247004509 -0.0318095572293 -0.038970194757 0 255 0
-0.184422984719 -0.0311500001699 0.86207985878 0 255 0
