ply
format ascii 1.0
comment https://github.com/EricCJoyce
element vertex 398
property float x
property float y
property float z
property uchar red
property uchar green
property uchar blue
end_header
0.124749027193 0.106662198901 0.235458105803 0 0 255
0.124831132591 0.107746168971 0.235386967659 0 0 255
0.123851917684 0.106943443418 0.213375419378 0 0 255
0.126103132963 0.106892175972 0.213329777122 0 0 255
0.12449875474 0.107352487743 0.212555393577 0 0 255
0.125085026026 0.106853500009 0.237093701959 0 0 255
0.126215428114 0.106133431196 0.21145863831 0 0 255
0.0646693184972 0.108491815627 0.210085645318 0 0 255
0.0704894810915 0.107324421406 0.21180395782 0 0 255
0.126272663474 0.105724431574 0.237105965614 0 0 255
0.0741669461131 0.107082739472 0.214130923152 0 0 255
0.1263345927 0.106238335371 0.210449010134 0 0 255
-0.00444305781275 0.10870334506 0.219515889883 0 0 255
-0.248182818294 -0.104344889522 -0.34157460928 0 0 255
-0.229030445218 -0.105543419719 0.284688800573 0 0 255
0.0852113887668 0.108356565237 0.236021637917 0 0 255
0.0861533284187 0.108270093799 0.236459240317 0 0 255
-0.249039053917 -0.102644361556 -0.339747875929 0 0 255
0.0684828534722 0.108242385089 0.211064741015 0 0 255
-0.24834369123 -0.104476265609 -0.340509206057 0 0 255
-0.00560984574258 0.109260730445 0.219042181969 0 0 255
-0.239693775773 -0.102523550391 0.278058856726 0 0 255
-0.117190897465 0.109323136508 0.23727171123 0 0 255
0.0683132782578 0.107833184302 0.221320256591 0 0 255
-0.0458927750587 0.109323643148 -0.124405443668 0 0 255
0.0660583600402 0.108255811036 0.210217446089 0 0 255
-0.239285632968 -0.105618707836 -0.350013375282 0 0 255
-0.238177359104 -0.104102186859 0.283987045288 0 0 255
-0.251296788454 -0.0951875522733 -0.331494778395 0 0 255
0.237158104777 -0.110512837768 -0.347294509411 0 0 255
-0.258970856667 -0.103966087103 -0.339480251074 0 0 255
-0.260363727808 -0.104926466942 -0.335402309895 0 0 255
-0.265358656645 -0.105003520846 -0.220912009478 0 0 255
-0.118424765766 0.108584195375 0.212346225977 0 0 255
-0.256206184626 -0.104485288262 -0.342984467745 0 0 255
-0.226706653833 -0.104087769985 0.282146304846 0 0 255
0.235737487674 -0.109708115458 -0.347285956144 0 0 255
-0.264817982912 -0.104532107711 -0.225362077355 0 0 255
0.239413902164 -0.109562948346 -0.346886605024 0 0 255
0.222997993231 -0.113143779337 0.287883460522 0 0 255
0.241291150451 -0.108391903341 -0.346625506878 0 0 255
0.0668343678117 0.109390482306 0.221016377211 0 0 255
-0.225310742855 -0.10661124438 -0.345638602972 0 0 255
0.241229385138 -0.107633218169 0.285311341286 0 0 255
-0.24798835814 -0.103029377759 0.282629549503 0 0 255
-0.250195711851 -0.0973500236869 0.27750018239 0 0 255
-0.118910774589 0.109241694212 0.21020449698 0 0 255
-0.119483068585 0.108845166862 0.211936235428 0 0 255
0.0689760148525 0.106159761548 -0.175712868571 0 0 255
0.228205025196 -0.111476965249 0.285123616457 0 0 255
0.225862711668 -0.110041677952 0.28273126483 0 0 255
0.0531400889158 0.106456562877 -0.125802785158 0 0 255
-0.116429120302 0.109544664621 0.213234737515 0 0 255
0.127655640244 0.10609921068 0.237101748586 0 0 255
-0.263665556908 -0.104883879423 -0.195413708687 0 0 255
-0.252706497908 -0.104598022997 -0.345724642277 0 0 255
0.0714594945312 0.108199723065 0.212763145566 0 0 255
-0.240823373199 -0.102439872921 -0.336909621954 0 0 255
0.0664171427488 0.107788749039 0.222039118409 0 0 255
0.111339353025 0.105741754174 -0.173660695553 0 0 255
-0.235284045339 -0.105554014444 -0.349321365356 0 0 255
0.0735855698586 0.10696837306 0.209229275584 0 0 255
-0.262676507235 -0.104888431728 -0.178354799747 0 0 255
-0.235732510686 -0.0336069725454 -0.339176118374 0 0 255
0.0689479783177 0.105157352984 -0.175987035036 0 0 255
-0.228138595819 -0.106049574912 -0.344450294971 0 0 255
0.0705122798681 0.106509007514 -0.175798296928 0 0 255
-0.232545211911 -0.0316399373114 -0.341805368662 0 0 255
0.110721088946 0.106245271862 -0.172276541591 0 0 255
0.0703224167228 0.108027890325 0.216845810413 0 0 255
-0.238024517894 -0.0349461250007 -0.339475661516 0 0 255
0.128634527326 0.106636479497 0.237019687891 0 0 255
-0.263743162155 -0.10528934747 -0.184955537319 0 0 255
0.0679059848189 0.108007140458 0.222499042749 0 0 255
-0.254578083754 -0.103664562106 -0.338977426291 0 0 255
-0.264365613461 -0.10496660322 -0.204990357161 0 0 255
0.0768392980099 0.108212552965 0.228748783469 0 0 255
0.119448535144 0.10736746341 0.236611381173 0 0 255
0.0506397336721 0.105974391103 -0.128930926323 0 0 255
-0.253633409739 -0.0878912806511 0.27327850461 0 0 255
-0.264390587807 -0.105179786682 -0.0673976615071 0 0 255
0.110329031944 0.105473324656 -0.173060268164 0 0 255
-0.26309248805 -0.10482095927 -0.187434986234 0 0 255
-0.0456561408937 0.108986578882 -0.126603260636 0 0 255
0.0761834606528 0.108379200101 0.209242343903 0 0 255
0.122927181423 0.107520140707 0.239330723882 0 0 255
0.0963306725025 0.106583461165 0.209477931261 0 0 255
-0.00503355031833 0.107913985848 0.220376625657 0 0 255
-0.263397842646 -0.105474323034 -0.239580586553 0 0 255
-0.233408465981 -0.0321470238268 -0.341839402914 0 0 255
-0.263796746731 -0.105800665915 -0.171010077 0 0 255
-0.26518240571 -0.105036117136 -0.0192134920508 0 0 255
-0.0456857644022 0.10855576396 -0.16445338726 0 0 255
-0.266733199358 -0.106504909694 -0.200794398785 0 0 255
0.121938444674 0.107637122273 0.237521603703 0 0 255
-0.263913035393 -0.106545627117 -0.0854340717196 0 0 255
-0.267251193523 -0.103138633072 0.219782397151 0 0 255
-0.118054986 0.108792044222 0.237921103835 0 0 255
-0.247964575887 -0.103069767356 0.284210711718 0 0 255
-0.258428543806 -0.105628423393 -0.347789973021 0 0 255
0.239174231887 -0.109684638679 -0.341173291206 0 0 255
-0.262752473354 -0.104769013822 -0.183125823736 0 0 255
-0.263265997171 -0.10518143326 -0.179926514626 0 0 255
-0.0615512989461 0.108888700604 0.21345731616 0 0 255
-0.265639036894 -0.105950593948 -0.198181256652 0 0 255
-0.00658141355962 0.109266132116 0.220493555069 0 0 255
-0.266474306583 -0.105749391019 -0.086501814425 0 0 255
-0.265200436115 -0.105034805834 -0.217295199633 0 0 255
0.0542867109179 0.105901896954 -0.126341223717 0 0 255
-0.252194553614 -0.104156941175 -0.349784314632 0 0 255
-0.268026560545 -0.103002876043 0.202566295862 0 0 255
-0.263895571232 -0.105353057384 -0.119800455868 0 0 255
-0.252168387175 -0.104196943343 -0.348174005747 0 0 255
-0.266943007708 -0.106148570776 -0.214742794633 0 0 255
0.0826507434249 0.109080307186 0.237072050571 0 0 255
-0.261479854584 -0.104981027544 -0.22109490633 0 0 255
-0.266704201698 -0.105970941484 -0.149907618761 0 0 255
-0.258212774992 -0.1037164554 -0.333762437105 0 0 255
0.233554005623 -0.110704861581 -0.347563445568 0 0 255
-0.265854626894 -0.10449142009 -0.310197651386 0 0 255
-0.264540404081 -0.105508737266 -0.19222292304 0 0 255
-0.265216380358 -0.105934172869 -0.191424936056 0 0 255
0.237738341093 -0.108831673861 -0.342043042183 0 0 255
-0.265370577574 -0.105668015778 -0.201800942421 0 0 255
-0.262555211782 -0.106323942542 -0.200462788343 0 0 255
-0.266619801521 -0.104904651642 -0.0476347729564 0 0 255
-0.267222821712 -0.105075657368 -0.184807762504 0 0 255
-0.262698501348 -0.105879977345 -0.0180854983628 0 0 255
-0.265316456556 -0.106295898557 -0.116711817682 0 0 255
-0.266057103872 -0.104224830866 -0.321411877871 0 0 255
-0.00384973827749 0.108272336423 0.221618175507 0 0 255
-0.264591902494 -0.104457750916 0.0399918816984 0 0 255
-0.2323589921 -0.106360755861 -0.341722249985 0 0 255
-0.26543456316 -0.106540888548 -0.111611932516 0 0 255
-0.25925347209 -0.105200894177 0.284779876471 0 0 255
-0.242554992437 -0.101859159768 0.275690227747 0 0 255
-0.266574680805 -0.104950614274 -0.111438237131 0 0 255
0.222581461072 -0.110499873757 0.284308254719 0 0 255
0.260491669178 -0.111892066896 -0.311006635427 0 0 255
-0.116594836116 0.108498990536 0.238517984748 0 0 255
0.245180934668 -0.108385212719 -0.345836877823 0 0 255
-0.0615198947489 0.108946450055 0.212316051126 0 0 255
-0.266863584518 -0.10265930742 0.080660007894 0 0 255
-0.265440791845 -0.105544537306 -0.206591740251 0 0 255
-0.267704665661 -0.103197820485 0.21374194324 0 0 255
-0.238025471568 -0.102994568646 -0.338813126087 0 0 255
-0.267728418112 -0.103157483041 0.212162807584 0 0 255
-0.2646895051 -0.106244660914 -0.107471391559 0 0 255
-0.265272140503 -0.105830237269 -0.195400416851 0 0 255
-0.259525209665 -0.10414070636 -0.343891590834 0 0 255
-0.264126211405 -0.105991594493 -0.0392755717039 0 0 255
-0.266051381826 -0.104485698044 0.279472857714 0 0 255
-0.264778792858 -0.105793304741 -0.253942221403 0 0 255
-0.264331668615 -0.104370243847 0.0419021584094 0 0 255
-0.264948010445 -0.106380559504 -0.173856601119 0 0 255
-0.263913184404 -0.10605507344 -0.033784635365 0 0 255
0.257810920477 -0.112528808415 0.285128235817 0 0 255
-0.266669303179 -0.104222938418 -0.00238661840558 0 0 255
-0.26525041461 -0.106067664921 -0.122215442359 0 0 255
-0.266663908958 -0.104003556073 -0.338229209185 0 0 255
0.262161821127 -0.111106291413 0.0991704463959 0 0 255
-0.263457864523 -0.104091159999 -0.280813515186 0 0 255
-0.26765999198 -0.106014803052 -0.0990788787603 0 0 255
-0.264730840921 -0.104197829962 -0.299499064684 0 0 255
-0.246082186699 -0.104249864817 0.284817665815 0 0 255
-0.26687079668 -0.105279117823 -0.238780215383 0 0 255
0.260460495949 -0.111947096884 -0.309393644333 0 0 255
-0.263922661543 -0.104924507439 -0.198633000255 0 0 255
-0.265493154526 -0.104853212833 -0.161671534181 0 0 255
-0.265138238668 -0.103511676192 -0.326415985823 0 0 255
0.261456280947 -0.112170398235 0.281186819077 0 0 255
0.0781957656145 0.108336620033 0.210736036301 0 0 255
-0.263184845448 -0.105237968266 -0.242805749178 0 0 255
-0.23475690186 -0.105545677245 -0.3405418396 0 0 255
-0.263452261686 -0.106384120882 -0.21406596899 0 0 255
-0.265808582306 -0.104098498821 0.0746380314231 0 0 255
-0.264587759972 -0.106320559978 -0.10352384299 0 0 255
0.261726468801 -0.11148057133 0.0631029158831 0 0 255
0.26221331954 -0.111020095646 0.0966106802225 0 0 255
-0.119314260781 0.109510101378 0.238033801317 0 0 255
0.121731780469 0.10758356005 0.238825082779 0 0 255
0.127920240164 0.106356784701 0.234143182635 0 0 255
-0.0418225713074 0.108606375754 -0.165720447898 0 0 255
-0.2620857656 -0.105536669493 -0.149401441216 0 0 255
-0.265161186457 -0.106577463448 -0.105870164931 0 0 255
0.128620386124 0.106454871595 0.219498381019 0 0 255
0.235203906894 -0.11089862138 0.283982843161 0 0 255
-0.268060237169 -0.10646327585 -0.0928928256035 0 0 255
-0.263682574034 -0.105794116855 -0.0374233499169 0 0 255
-0.0373383052647 0.109297648072 -0.132678478956 0 0 255
-0.267873585224 -0.102456949651 0.189315751195 0 0 255
-0.265137434006 -0.105764374137 -0.0631865411997 0 0 255
-0.263251364231 -0.105886362493 -0.0273619703948 0 0 255
-0.26180139184 -0.105487972498 -0.145950213075 0 0 255
0.258577913046 -0.110711053014 0.285000830889 0 0 255
-0.0361990295351 0.108845591545 -0.132038876414 0 0 255
0.120869502425 0.106572516263 0.239027097821 0 0 255
-0.262155622244 -0.10638294369 -0.0600859299302 0 0 255
0.236194849014 -0.109837278724 -0.350170969963 0 0 255
-0.0364746451378 0.109084315598 -0.133869856596 0 0 255
0.0525668114424 0.106240317225 -0.129328235984 0 0 255
-0.0380964316428 0.10971365869 -0.134136781096 0 0 255
-0.261330097914 -0.104123726487 -0.309363037348 0 0 255
-0.264470547438 -0.106001272798 -0.044887367636 0 0 255
-0.266295731068 -0.104626201093 -0.313829064369 0 0 255
-0.231394961476 -0.0309531074017 -0.342084348202 0 0 255
-0.261194527149 -0.104094780982 -0.307884186506 0 0 255
0.244218185544 -0.105925142765 -0.338465422392 0 0 255
-0.2637552917 -0.106007739902 -0.0983695536852 0 0 255
-0.266013979912 -0.105923824012 -0.00764180766419 0 0 255
-0.266892492771 -0.106262005866 -0.210581302643 0 0 255
0.261857748032 -0.110819451511 -0.052906639874 0 0 255
0.261307179928 -0.111608624458 0.12106140703 0 0 255
-0.265355914831 -0.104676343501 -0.296287119389 0 0 255
-0.264134913683 -0.105915859342 -0.0416257195175 0 0 255
0.127199217677 0.107616394758 0.239148586988 0 0 255
-0.262844115496 -0.106224477291 -0.0764757320285 0 0 255
-0.26817509532 -0.103012472391 0.134391531348 0 0 255
-0.268210798502 -0.102756738663 0.0604353323579 0 0 255
0.261825233698 -0.1117047593 -0.0328565351665 0 0 255
0.26027110219 -0.109930463135 -0.152371376753 0 0 255
-0.0619436502457 0.107928417623 0.212010666728 0 0 255
-0.0439496040344 0.108482740819 -0.162734031677 0 0 255
-0.267201066017 -0.105371579528 -0.307656556368 0 0 255
-0.264394372702 -0.104673065245 -0.345837712288 0 0 255
-0.230602160096 -0.101782202721 0.280282557011 0 0 255
-0.265606462955 -0.105737924576 -0.0060710106045 0 0 255
-0.26251989603 -0.104900054634 0.286044180393 0 0 255
-0.264273762703 -0.104943841696 -0.269990980625 0 0 255
0.261580586433 -0.111814469099 0.0224993322045 0 0 255
-0.232059448957 -0.102637112141 0.28019246459 0 0 255
-0.264384239912 -0.104275390506 0.0382450930774 0 0 255
-0.262890189886 -0.105554401875 -0.0308298971504 0 0 255
-0.266529560089 -0.104566395283 -0.0559230335057 0 0 255
-0.263113230467 -0.10454479605 0.00191693613306 0 0 255
-0.229600891471 -0.105966597795 0.287227094173 0 0 255
-0.267510682344 -0.101930610836 0.114315278828 0 0 255
-0.262629956007 -0.105978943408 -0.0799474790692 0 0 255
0.232228294015 -0.10685518384 0.281534016132 0 0 255
-0.263040214777 -0.105587750673 -0.0324281007051 0 0 255
0.260842829943 -0.111220419407 -0.0312494598329 0 0 255
0.255682677031 -0.049727499485 -0.333746790886 0 0 255
0.26091748476 -0.111901022494 0.13244843483 0 0 255
0.262000411749 -0.110252127051 -0.316514968872 0 0 255
0.0982722491026 0.10657223314 0.210168406367 0 0 255
-0.267956346273 -0.103903591633 -0.297342658043 0 0 255
-0.0608205422759 0.109420575202 0.21050311625 0 0 255
0.242914363742 -0.103883996606 0.280635684729 0 0 255
-0.261145859957 -0.104588262737 -0.292707115412 0 0 255
0.255398601294 -0.111214354634 0.286296993494 0 0 255
-0.222085416317 -0.105941943824 0.283308982849 0 0 255
-0.266550630331 -0.102358102798 0.143171906471 0 0 255
-0.0368952862918 0.109083905816 -0.128571748734 0 0 255
-0.266626417637 -0.103665448725 0.0480537898839 0 0 255
0.118111371994 0.10833953321 0.231857687235 0 0 255
-0.264834553003 -0.104686491191 -0.089334666729 0 0 255
-0.267512083054 -0.104330606759 -0.0795919969678 0 0 255
-0.262237280607 -0.105401828885 -0.155914410949 0 0 255
-0.265444755554 -0.103528946638 0.196132004261 0 0 255
-0.268370747566 -0.105285525322 -0.0665300413966 0 0 255
-0.0423832982779 0.109259165823 -0.163147509098 0 0 255
0.215138792992 -0.113163270056 0.287442535162 0 0 255
-0.234593808651 -0.104179315269 0.281647384167 0 0 255
-0.0592858940363 0.108714193106 0.211005479097 0 0 255
0.0655304789543 0.108578376472 0.222307518125 0 0 255
-0.00842604320496 0.109127618372 0.221797972918 0 0 255
-0.268461406231 -0.10372158885 0.084192737937 0 0 255
0.0663701072335 0.107057876885 0.213025391102 0 0 255
-0.267066985369 -0.103854387999 0.0460055209696 0 0 255
-0.00765507016331 0.108890414238 0.213039889932 0 0 255
0.117643050849 0.107402637601 0.208686798811 0 0 255
-0.268572956324 -0.104755520821 -0.0853966102004 0 0 255
0.259943664074 -0.11044600606 0.2121026963 0 0 255
0.235696494579 -0.109868369997 -0.343214988708 0 0 255
-0.00508320704103 0.107830315828 0.221958905458 0 0 255
-0.00679618073627 0.108083255589 0.213014632463 0 0 255
-0.228332087398 -0.0290835797787 -0.344008773565 0 0 255
-0.0576542764902 0.108676336706 0.220413282514 0 0 255
-0.0559245459735 0.109644882381 0.221862837672 0 0 255
-0.265475839376 -0.105455219746 -0.209787845612 0 0 255
0.0552564002573 0.106135398149 -0.125225692987 0 0 255
-0.0531679019332 0.109213642776 0.222691014409 0 0 255
0.0833178833127 0.107585139573 0.237461805344 0 0 255
-0.265437185764 -0.102177642286 0.15698236227 0 0 255
-0.265455067158 -0.102147258818 0.155793070793 0 0 255
-0.234579265118 -0.0282026566565 -0.344708174467 0 0 255
0.261319607496 -0.111548230052 0.119565166533 0 0 255
0.233654409647 -0.112423814833 0.287458181381 0 0 255
-0.268328875303 -0.104453124106 0.0418136492372 0 0 255
0.229645013809 -0.110692344606 -0.348536729813 0 0 255
-0.264734745026 -0.103558324277 0.143225833774 0 0 255
-0.249994859099 -0.104367308319 0.287180542946 0 0 255
-0.268722474575 -0.10503731668 -0.0797645673156 0 0 255
0.260426491499 -0.11200710386 -0.307634711266 0 0 255
-0.266898959875 -0.10665859282 -0.13325227797 0 0 255
0.216196238995 -0.111437171698 0.285696834326 0 0 255
-0.267189919949 -0.104384623468 0.257049202919 0 0 255
0.249769330025 0.103127710521 0.279476135969 0 0 255
0.076852761209 0.107242114842 0.226670503616 0 0 255
-0.265508979559 -0.104781396687 -0.164030224085 0 0 255
-0.214207857847 0.15345607698 -0.0513980165124 0 0 255
-0.267763525248 -0.031704120338 -0.349471539259 0 0 255
-0.265819311142 -0.10403611511 0.00672989105806 0 0 255
-0.217263534665 -0.105406060815 0.284343540668 0 0 255
-0.0594495050609 0.109090298414 0.212012812495 0 0 255
-0.00637664599344 0.10768879205 0.216491371393 0 0 255
-0.267203629017 -0.106346681714 -0.21344473958 0 0 255
-0.264307022095 -0.102757997811 0.0613711103797 0 0 255
-0.226980403066 -0.028291316703 -0.3439052701 0 0 255
-0.256293803453 -0.104452304542 -0.345442801714 0 0 255
-0.263760745525 -0.105739995837 -0.238068848848 0 0 255
-0.261577129364 -0.105933241546 -0.12916892767 0 0 255
-0.266223937273 -0.102433107793 0.216855064034 0 0 255
-0.263431698084 -0.104835242033 -0.258736729622 0 0 255
0.260891795158 -0.111506715417 -0.0255137104541 0 0 255
-0.267264425755 -0.104180783033 0.052114252001 0 0 255
-0.233963489532 -0.103782773018 0.280908286572 0 0 255
-0.266495615244 -0.104651503265 0.0130432574078 0 0 255
0.247029453516 -0.105179935694 -0.340500622988 0 0 255
-0.212373971939 -0.104922838509 0.288066953421 0 0 255
-0.224316462874 -0.105129726231 0.287428379059 0 0 255
-0.229761064053 -0.0300033055246 -0.341730266809 0 0 255
-0.245849683881 -0.104180805385 0.286789387465 0 0 255
-0.215611994267 -0.104490287602 0.28598895669 0 0 255
0.262141734362 -0.110393419862 -0.115775071084 0 0 255
0.24680647254 -0.102966956794 -0.33694896102 0 0 255
-0.267220944166 -0.103026710451 0.085223428905 0 0 255
-0.215101450682 0.152322724462 -0.0518407411873 0 0 255
0.261275291443 -0.111390709877 0.266164243221 0 0 255
-0.0515702068806 0.109587706625 0.232134446502 0 0 255
0.261090129614 -0.111098341644 -0.0370675548911 0 0 255
-0.0409673526883 0.10956107825 0.216633945704 0 0 255
-0.266443222761 -0.104732096195 0.016282800585 0 0 255
-0.255296707153 -0.104141063988 -0.337425529957 0 0 255
-0.0596797801554 0.108852244914 0.217951476574 0 0 255
0.120650060475 0.107456356287 0.209580034018 0 0 255
-0.0380795188248 0.109496869147 -0.127545669675 0 0 255
-0.223159387708 -0.107570648193 -0.346843451262 0 0 255
0.261373460293 -0.111817590892 -0.0246726702899 0 0 255
0.250316023827 -0.104926839471 -0.337594211102 0 0 255
0.122098863125 0.107087947428 0.209488674998 0 0 255
-0.0385393053293 0.108013674617 0.214917138219 0 0 255
-0.261823058128 -0.104217946529 -0.249149888754 0 0 255
0.260558962822 -0.11142667383 -0.0231043696404 0 0 255
-0.00459574721754 0.10914067924 0.222274616361 0 0 255
0.0796603858471 0.108242042363 0.210260897875 0 0 255
0.261641263962 -0.112002566457 0.175446376204 0 0 255
0.261221379042 -0.110662348568 -0.048390712589 0 0 255
0.245911940932 -0.104631759226 -0.338611453772 0 0 255
0.236097514629 -0.111550122499 0.287201344967 0 0 255
-0.058306042105 0.108810849488 0.219281241298 0 0 255
0.245310738683 0.103576466441 0.280754953623 0 0 255
-0.209596976638 0.149045541883 -0.0378274321556 0 0 255
-0.222200602293 -0.106143251061 0.287189424038 0 0 255
-0.213760688901 0.151939898729 -0.0518508441746 0 0 255
-0.251317858696 -0.0980174541473 0.277695983648 0 0 255
-0.265768051147 -0.102200232446 0.15197634697 0 0 255
-0.251749783754 -0.10204936564 -0.337523877621 0 0 255
-0.216410860419 -0.104990288615 0.286850750446 0 0 255
-0.265289843082 -0.106255695224 -0.0515134893358 0 0 255
-0.236867651343 -0.0319134965539 -0.341917395592 0 0 255
0.0711096152663 0.105977550149 -0.171517923474 0 0 255
-0.234576389194 -0.0305567421019 -0.342142105103 0 0 255
-0.0559839010239 0.108748435974 0.221338823438 0 0 255
0.109568670392 0.106115482748 -0.169254675508 0 0 255
0.238026484847 -0.11037299782 0.286677181721 0 0 255
-0.0396967567503 0.108209371567 -0.123790495098 0 0 255
-0.0636972934008 0.108670763671 0.217590302229 0 0 255
-0.0815842151642 0.108757890761 0.215720757842 0 0 255
0.260524749756 -0.11183372885 -0.312716782093 0 0 255
-0.263894677162 -0.104677736759 -0.00759250717238 0 0 255
0.233259394765 -0.110493533313 -0.348547697067 0 0 255
0.259279936552 0.100817799568 0.268652141094 0 0 255
0.109301909804 0.106387354434 -0.176148176193 0 0 255
0.129101276398 0.106316871941 0.223070055246 0 0 255
0.258493751287 -0.112396731973 0.173921138048 0 0 255
-0.0634728372097 0.10939463228 0.231776729226 0 0 255
0.0839475393295 0.107402198017 0.235445141792 0 0 255
-0.263065159321 -0.104651533067 0.00584208359942 0 0 255
0.094362154603 0.107848733664 0.209657177329 0 0 255
0.261828809977 -0.112335130572 0.0807754546404 0 0 255
0.109583646059 0.105158984661 -0.176679641008 0 0 255
-0.210486590862 0.152358785272 -0.0524654649198 0 0 255
-0.0502698160708 0.108368344605 0.23209901154 0 0 255
-0.207717880607 0.145708143711 -0.0394170917571 0 0 255
0.252041369677 -0.105859018862 -0.338606595993 0 0 255
-0.0337112508714 0.10851676017 0.231846541166 0 0 255
-0.26499709487 -0.103334628046 0.0663222596049 0 0 255
0.24157576263 -0.10312808305 0.280695706606 0 0 255
-0.0631879419088 0.108264990151 0.23198325932 0 0 255
0.051157746464 0.10735733062 -0.163602173328 0 0 255
-0.21163828671 0.151604473591 -0.0534517914057 0 0 255
0.0143891936168 0.106584474444 0.278965353966 0 0 255
0.0166464205831 0.107052847743 0.279246777296 0 0 255
-0.0597196929157 0.107962369919 0.233139887452 0 0 255
-0.172567397356 0.10721051693 -0.125725463033 0 0 255
-0.0748708471656 0.109634883702 -0.168009966612 0 0 255
0.0507065653801 0.105639830232 -0.156714573503 0 0 255
