ply
format ascii 1.0
comment https://github.com/EricCJoyce
element vertex 249
property float x
property float y
property float z
property uchar red
property uchar green
property uchar blue
end_header
-0.0290694590658 0.171524077654 0.147757723927 0 0 255
-0.0169385056943 0.174104243517 0.157396197319 0 0 255
-0.0291723590344 0.171939820051 0.125814035535 0 0 255
0.111327752471 0.0679864808917 0.237289443612 0 0 255
0.0163362249732 0.174417480826 0.097215294838 0 0 255
0.0905888453126 0.06744594872 0.224096611142 0 0 255
0.0927165523171 0.0676033422351 0.216244712472 0 0 255
0.0154533106834 0.175043731928 0.0968434736133 0 0 255
0.0931999832392 0.0673549473286 0.214797645807 0 0 255
0.0907692685723 0.0671576857567 0.225805729628 0 0 255
0.113581448793 0.068379200995 0.216844916344 0 0 255
0.0913112089038 0.0676644220948 0.218658089638 0 0 255
0.0995779335499 0.068040728569 0.217000648379 0 0 255
0.132725998759 0.0684166550636 0.215033248067 0 0 255
-0.03072732687 0.171962305903 0.12628929317 0 0 255
-0.0154835833237 0.174107581377 0.117177128792 0 0 255
0.0568509586155 0.066822886467 0.230079904199 0 0 255
0.0961969047785 0.0676265209913 0.235779494047 0 0 255
0.101165570319 0.0681077465415 0.216758981347 0 0 255
0.0444814674556 0.174183025956 0.128773584962 0 0 255
0.0908370837569 0.0674204900861 0.226934999228 0 0 255
0.0680052414536 0.0677945911884 0.215122580528 0 0 255
0.0344510748982 0.175221666694 0.123251892626 0 0 255
0.105804786086 0.0681912973523 0.216213539243 0 0 255
0.0918123200536 0.0675227493048 0.216710373759 0 0 255
-0.0291405338794 0.174670860171 0.101419433951 0 0 255
-0.00771351018921 0.174391612411 0.116127878428 0 0 255
0.149948105216 0.0688278526068 0.214588165283 0 0 255
0.107943512499 0.0681337639689 0.233825445175 0 0 255
-0.0160378273576 0.173615127802 0.155777230859 0 0 255
0.0690040737391 0.0672163963318 0.214845374227 0 0 255
0.151639029384 0.0681050270796 0.217066884041 0 0 255
0.0566927008331 0.0675863325596 0.216472640634 0 0 255
0.112701572478 0.0680688247085 0.231291264296 0 0 255
0.0446812845767 0.17437979579 0.12599311769 0 0 255
-0.00230876915157 0.173763006926 0.160915911198 0 0 255
-0.00852718669921 0.174129724503 0.156741186976 0 0 255
-0.0271390620619 0.170712053776 0.147205635905 0 0 255
-0.0288075618446 0.173682838678 0.0994162634015 0 0 255
0.0431460700929 0.174945905805 0.115638166666 0 0 255
-0.0294451974332 0.173004046082 0.124746546149 0 0 255
-0.030502224341 0.170908257365 0.149583935738 0 0 255
-0.00852294545621 0.173834174871 0.115362986922 0 0 255
0.15312205255 0.06821590662 0.219834834337 0 0 255
-0.0282028596848 0.171136528254 0.148244485259 0 0 255
0.043604940176 0.174944698811 0.117244958878 0 0 255
0.107433617115 0.0674446672201 0.215050533414 0 0 255
0.155619561672 0.0646802484989 0.219457000494 0 0 255
0.0557971000671 0.0667367726564 0.230018347502 0 0 255
-0.0159711558372 0.174233943224 0.157169297338 0 0 255
0.0581409148872 0.0672698915005 0.216553732753 0 0 255
0.0544418059289 0.0674234703183 0.215134203434 0 0 255
0.153323471546 0.0687556564808 0.226137042046 0 0 255
0.136057585478 0.0686381980777 0.21517008543 0 0 255
0.151887506247 0.0682151243091 0.213750720024 0 0 255
0.128123655915 0.0683552473783 0.214495956898 0 0 255
0.122368328273 0.0682555660605 0.214128553867 0 0 255
0.0911616533995 0.0670740455389 0.219698980451 0 0 255
0.0577743016183 0.0676774606109 0.225649148226 0 0 255
0.116498626769 0.0680998638272 0.232160538435 0 0 255
0.153361409903 0.0677746981382 0.224090918899 0 0 255
0.102494813502 0.0676985904574 0.22787001729 0 0 255
0.0336321555078 0.175501659513 0.122577413917 0 0 255
0.10672146827 0.0676189213991 0.226475656033 0 0 255
-0.00962091051042 0.17404922843 0.15735758841 0 0 255
0.147720515728 0.068667113781 0.215901300311 0 0 255
0.0699191465974 0.165705323219 0.124311499298 0 0 255
0.101299531758 0.0682734400034 0.225243970752 0 0 255
0.0324200950563 0.174605518579 0.123018682003 0 0 255
0.133343890309 0.0688902437687 0.220269903541 0 0 255
0.112441457808 0.0677173286676 0.216106951237 0 0 255
0.108113288879 0.0682655051351 0.219517052174 0 0 255
0.114334829152 0.0675617158413 0.216544926167 0 0 255
0.106735751033 0.0682924315333 0.216647922993 0 0 255
0.1144021824 0.0679181292653 0.232179746032 0 0 255
-0.014466740191 0.174294248223 0.156987115741 0 0 255
0.0583836473525 0.0672659054399 0.229956373572 0 0 255
0.15547631681 0.0655670836568 0.22355465591 0 0 255
0.100882433355 0.0676120594144 0.2315928936 0 0 255
0.058239646256 0.0670220181346 0.219206288457 0 0 255
-0.00248773093335 0.178244650364 0.0883987173438 0 0 255
0.101213142276 0.0676063299179 0.229681923985 0 0 255
0.103624686599 0.0678046569228 0.237284317613 0 0 255
0.0435657426715 0.174932956696 0.119961418211 0 0 255
-0.0283051766455 0.173991814256 0.10215806216 0 0 255
0.0688003003597 0.164803981781 0.127562195063 0 0 255
0.0915902033448 0.0674521103501 0.215645864606 0 0 255
0.0702652186155 0.155587822199 0.123822249472 0 0 255
0.111388407648 0.0677385777235 0.213958635926 0 0 255
0.109130501747 0.067926608026 0.227911993861 0 0 255
0.0158906392753 0.175157651305 0.0993368402123 0 0 255
0.0770556628704 0.066571906209 0.22383479774 0 0 255
0.139558836818 0.0684890672565 0.215524986386 0 0 255
-0.0297974776477 0.174127995968 0.103543162346 0 0 255
0.0566121190786 0.0668709129095 0.214137941599 0 0 255
-0.00157808244694 0.178462788463 0.0878017470241 0 0 255
0.130952581763 0.0682480484247 0.228537037969 0 0 255
-0.0109214475378 0.173862248659 0.117398880422 0 0 255
0.0532952062786 0.0675045102835 0.220782652497 0 0 255
0.0639550760388 0.0675195977092 0.216077059507 0 0 255
0.109708830714 0.0674393698573 0.215192139149 0 0 255
-0.144639998674 -0.0853910073638 0.255888342857 0 0 255
0.0562458671629 0.0671517252922 0.224167689681 0 0 255
-0.00178791477811 0.175478920341 0.0890849903226 0 0 255
0.0251314342022 0.20035803318 0.0664932057261 0 0 255
0.0522687211633 0.182200193405 0.0906331837177 0 0 255
0.0357147753239 0.174368426204 0.147521570325 0 0 255
0.100796081126 0.0670710429549 0.224895998836 0 0 255
0.0705699473619 0.156490385532 0.112562291324 0 0 255
0.034534458071 0.174543455243 0.146562069654 0 0 255
0.04997170344 0.182011425495 0.0885142758489 0 0 255
0.101416513324 0.0672356933355 0.233240455389 0 0 255
-0.142788678408 -0.0852876529098 0.254244744778 0 0 255
0.0653256252408 0.0668668746948 0.214865550399 0 0 255
0.0702678337693 0.15461422503 0.121038608253 0 0 255
0.0711312219501 0.162292003632 0.11737536639 0 0 255
0.0698798969388 0.154588609934 0.11763586849 0 0 255
0.05793274194 0.06667765975 0.226138994098 0 0 255
0.0352299064398 0.174677893519 0.145853430033 0 0 255
0.128113329411 0.068443313241 0.231185421348 0 0 255
-0.145412042737 -0.0855490267277 0.250806063414 0 0 255
0.0171898007393 0.175183594227 0.0934964567423 0 0 255
-0.134407058358 -0.0858165249228 0.253949314356 0 0 255
0.0450950600207 0.174973025918 0.131823286414 0 0 255
0.0704863667488 0.167437508702 0.120710358024 0 0 255
-0.151824310422 -0.0590843446553 0.242734923959 0 0 255
0.1123887375 0.0682929456234 0.224682301283 0 0 255
0.113679692149 0.067703999579 0.227919101715 0 0 255
0.0130583010614 0.19884377718 0.06118375808 0 0 255
-0.14318780601 -0.0857643336058 0.257853776217 0 0 255
0.109740287066 0.068137191236 0.237511053681 0 0 255
0.043685875833 0.174320057034 0.130817368627 0 0 255
-0.147013902664 -0.0841673761606 0.231451153755 0 0 255
0.0612434186041 0.0669566467404 0.213251560926 0 0 255
-0.148683220148 -0.0854081436992 0.252839565277 0 0 255
0.0241494476795 0.200809285045 0.0662780553102 0 0 255
0.0697674229741 0.163076236844 0.109789401293 0 0 255
-0.141674220562 -0.0855699628592 0.251458704472 0 0 255
-0.138583406806 -0.0848644450307 0.25247246027 0 0 255
0.0355368889868 0.173578500748 0.144453108311 0 0 255
-0.148564189672 -0.0841470733285 0.234096646309 0 0 255
0.10483109206 0.0684940218925 0.238240092993 0 0 255
0.110202208161 0.0678941607475 0.238372519612 0 0 255
-0.132298737764 -0.0860950127244 0.260857105255 0 0 255
-0.145340189338 -0.0842725932598 0.231357648969 0 0 255
0.0379505939782 0.176370471716 0.088789910078 0 0 255
0.0440367795527 0.174293667078 0.133046790957 0 0 255
0.125136986375 0.0681188032031 0.214096516371 0 0 255
-0.029292486608 0.173726350069 0.102370336652 0 0 255
0.0429588444531 0.17466032505 0.118309497833 0 0 255
0.0537804104388 0.0665814653039 0.227569684386 0 0 255
-0.146651595831 -0.0838400125504 0.229838296771 0 0 255
-0.147678241134 -0.0846539363265 0.232613369823 0 0 255
0.0453824959695 0.174679398537 0.12361381948 0 0 255
-0.15361841023 -0.0552682839334 0.237600192428 0 0 255
-0.145029097795 -0.0854044184089 0.252281218767 0 0 255
0.0137871289626 0.200244545937 0.0628845840693 0 0 255
0.0697441250086 0.165160372853 0.113016955554 0 0 255
0.0696533471346 0.156187266111 0.126533716917 0 0 255
-0.0114017389715 0.174425974488 0.115750059485 0 0 255
0.144115030766 0.0690397843719 0.215183362365 0 0 255
0.0147961778566 0.174816846848 0.0914392396808 0 0 255
0.0700711533427 0.151300728321 0.116881489754 0 0 255
0.107355386019 0.068166308105 0.237631008029 0 0 255
0.0129703078419 0.174727037549 0.095655836165 0 0 255
0.0601862408221 0.0669001862407 0.229669585824 0 0 255
0.0188283137977 0.174886822701 0.0922891646624 0 0 255
0.0178582239896 0.174524232745 0.0922861024737 0 0 255
0.0786039978266 0.0672614052892 0.218247532845 0 0 255
-0.0157408863306 0.201356947422 0.0505531392992 0 0 255
0.0159942544997 0.199073567986 0.0612734928727 0 0 255
0.0831386819482 0.122234269977 0.122261866927 0 0 255
-0.010691809468 0.176504269242 0.0899033471942 0 0 255
0.145790055394 0.0686432346702 0.215353831649 0 0 255
0.1192150563 0.0677229315042 0.230756253004 0 0 255
0.0690066590905 0.161461040378 0.127825453877 0 0 255
0.0543933920562 0.0676892101765 0.228644445539 0 0 255
0.12715767324 0.0688445344567 0.215471327305 0 0 255
-0.150341138244 -0.0838148146868 0.229592353106 0 0 255
0.0372433923185 0.174779966474 0.0966893956065 0 0 255
0.0691572800279 0.162735164165 0.127367839217 0 0 255
0.0501134842634 0.156305298209 0.120732076466 0 0 255
0.149784788489 0.0685077831149 0.219185948372 0 0 255
0.15582382679 0.065768532455 0.233394265175 0 0 255
0.111948117614 0.0679970905185 0.22337988019 0 0 255
0.0824654325843 0.124831601977 0.111007504165 0 0 255
0.0398230776191 0.176729172468 0.0894331485033 0 0 255
-0.124460786581 -0.0858613029122 0.261366635561 0 0 255
0.153182938695 0.0662825405598 -0.25336804986 0 0 255
-0.0102280369028 0.174001768231 0.155798956752 0 0 255
0.0710108876228 0.0671287998557 0.21705596149 0 0 255
0.0247887708247 0.199948862195 0.0679567232728 0 0 255
0.129477217793 0.0680477097631 0.216477349401 0 0 255
0.0653145089746 0.0674041807652 0.224690869451 0 0 255
0.0824770405889 0.126087412238 0.109474845231 0 0 255
0.0766160786152 0.0669987648726 0.22129188478 0 0 255
0.115267619491 0.0676997825503 0.214961871505 0 0 255
0.130865454674 0.0685201510787 0.227231383324 0 0 255
0.110536023974 0.0681855082512 0.226376652718 0 0 255
0.0699734091759 0.153967648745 0.128357842565 0 0 255
0.0698611661792 0.170734986663 0.117054104805 0 0 255
0.160314768553 0.0678106024861 0.248366430402 0 0 255
-0.131136551499 -0.0850867331028 0.256343364716 0 0 255
0.0133526725695 0.197926998138 0.0603665150702 0 0 255
-0.000834492500871 0.177437901497 0.0888120383024 0 0 255
0.0430705659091 0.174878165126 0.152329146862 0 0 255
-0.0253675263375 0.173624992371 0.120415814221 0 0 255
-0.030241612345 0.175500795245 0.16841545701 0 0 255
0.132713600993 0.0679507404566 0.219395577908 0 0 255
0.0692624002695 0.156983315945 0.128309264779 0 0 255
0.131505340338 0.0685901790857 0.225794613361 0 0 255
0.126026153564 0.0676420107484 0.214084595442 0 0 255
-0.0117204785347 0.173884943128 0.157526671886 0 0 255
-0.00960460025817 0.177246555686 0.0888537764549 0 0 255
0.0665971487761 0.0670394226909 0.218340694904 0 0 255
-0.0252320691943 0.174698278308 0.0896896496415 0 0 255
-0.0587280467153 0.07673535496 -0.222101390362 0 0 255
-0.0287139452994 0.175300747156 0.168385758996 0 0 255
-0.0354757905006 0.174037009478 0.108090870082 0 0 255
0.0697209462523 0.167407602072 0.113670490682 0 0 255
-0.0204166490585 0.174328327179 0.119722254574 0 0 255
0.0392672680318 0.176830664277 0.0880188047886 0 0 255
-0.0537945367396 0.174168154597 0.121930196881 0 0 255
0.0381362661719 0.174762934446 0.105721376836 0 0 255
0.0354368276894 0.174371808767 0.149508178234 0 0 255
-0.0393389426172 0.174764379859 0.161713689566 0 0 255
0.0415807291865 0.175175666809 0.11482873559 0 0 255
0.0389143712819 0.186468705535 0.186239778996 0 0 255
-0.0229047574103 0.178752094507 0.170906111598 0 0 255
-0.0384383648634 0.175303682685 0.162908822298 0 0 255
-0.0162980556488 0.200591668487 0.0545527413487 0 0 255
-0.0295710228384 0.175173744559 0.089254245162 0 0 255
0.152142733335 0.0679108500481 0.216026678681 0 0 255
0.0266271755099 0.174551561475 0.159735396504 0 0 255
-0.0616252869368 0.0763289108872 -0.221951201558 0 0 255
0.106344029307 0.0684409141541 0.217564627528 0 0 255
0.0347347892821 0.174486219883 0.148422405124 0 0 255
-0.00761611154303 0.173690184951 0.0955676957965 0 0 255
0.109996698797 0.0681418552995 0.221772745252 0 0 255
0.0152270272374 0.200043216348 0.0635305345058 0 0 255
-0.0338010899723 0.17403717339 0.16135981679 0 0 255
-0.027307074517 0.176917642355 0.169921085238 0 0 255
0.0421568155289 0.174669891596 0.0921059846878 0 0 255
0.0305031202734 0.17342735827 0.124619044363 0 0 255
0.0376521684229 0.187122344971 0.186572134495 0 0 255
0.0161191523075 0.194859966636 0.0572304055095 0 0 255
0.105523116887 0.0686296224594 0.239761605859 0 0 255
0.0440320745111 0.174708232284 0.149496376514 0 0 255
0.0322020277381 0.172665625811 0.145230427384 0 0 255
