ply
format ascii 1.0
comment https://github.com/EricCJoyce
element vertex 82
property float x
property float y
property float z
property uchar red
property uchar green
property uchar blue
end_header
-0.12413469702 -0.121908918023 0.36683934927 0 0 255
-0.127587273717 -0.124008528888 0.368536710739 0 0 255
-0.125457823277 -0.122671701014 0.366796284914 0 0 255
-0.121287196875 -0.124620422721 0.364184588194 0 0 255
-0.121688582003 -0.120582640171 0.368309408426 0 0 255
-0.122263588011 -0.125310271978 0.366256833076 0 0 255
-0.137262687087 0.369978994131 0.551629364491 0 0 255
-0.136312305927 0.370697289705 0.54883646965 0 0 255
-0.128752708435 0.212342262268 0.399867415428 0 0 255
-0.129252016544 -0.124974600971 0.368587762117 0 0 255
-0.134999275208 0.371407538652 0.549653410912 0 0 255
-0.123860619962 -0.123804576695 0.40088135004 0 0 255
-0.128620833158 0.21228556335 0.402071356773 0 0 255
-0.131420895457 0.368971526623 0.549439191818 0 0 255
0.0838035419583 -0.327170491219 0.519711971283 0 0 255
-0.133298680186 0.372223287821 0.552436888218 0 0 255
-0.139448285103 0.211572811007 0.384974986315 0 0 255
0.0968545600772 -0.222370415926 0.555584788322 0 0 255
0.0905195623636 -0.22590278089 0.553394317627 0 0 255
-0.140419006348 0.211245775223 0.381089061499 0 0 255
-0.127488985658 0.212981909513 0.401381731033 0 0 255
0.0431838408113 -0.200747892261 0.581395208836 0 0 255
0.0973922535777 -0.221094876528 0.539601325989 0 0 255
-0.0260489992797 -0.167640447617 0.567242264748 0 0 255
-0.13109588623 0.212949082255 0.367349117994 0 0 255
0.0926628261805 -0.225335910916 0.564545810223 0 0 255
-0.126316010952 0.211243733764 0.366544514894 0 0 255
0.090636216104 -0.224662542343 0.533959388733 0 0 255
-0.106565177441 0.393291503191 0.534456312656 0 0 255
-0.0839817002416 -0.223356425762 0.485888391733 0 0 255
0.0895104631782 -0.225845336914 0.542768657207 0 0 255
-0.0684707686305 0.422103643417 0.497051924467 0 0 255
0.0939559489489 0.382360428572 0.615913331509 0 0 255
-0.131515800953 0.212554097176 0.369869202375 0 0 255
-0.0078385360539 -0.17075355351 0.568742752075 0 0 255
-0.142487466335 0.212067455053 0.422529935837 0 0 255
-0.0647831708193 0.423809438944 0.504133939743 0 0 255
-0.0097473282367 -0.167274996638 0.56768476963 0 0 255
-0.13151524961 -0.213801458478 0.545854449272 0 0 255
-0.0159350186586 -0.131327480078 0.511740088463 0 0 255
-0.0833630785346 -0.222749903798 0.481767237186 0 0 255
0.215638980269 -0.231334164739 -0.628425598145 0 0 255
0.103065565228 0.356417745352 0.608955323696 0 0 255
-0.0590975210071 -0.184002190828 0.521577060223 0 0 255
-0.113197855651 -0.229036301374 0.524601221085 0 0 255
-0.107917457819 0.392416030169 0.53600102663 0 0 255
-0.131410330534 0.337616384029 0.544950723648 0 0 255
-0.111346289515 0.393589049578 0.558579027653 0 0 255
-0.108470126987 0.358459204435 0.494341850281 0 0 255
-0.643405377865 -0.393665283918 -0.631688833237 0 0 255
-0.112944543362 -0.233158901334 0.520462393761 0 0 255
-0.109806187451 -0.222974643111 0.531547546387 0 0 255
0.0566993840039 -0.197312936187 0.579148292542 0 0 255
-0.034209087491 -0.172526612878 0.569990932941 0 0 255
-0.0331251323223 -0.167028471828 0.564153552055 0 0 255
0.102778039873 -0.21917553246 0.559423387051 0 0 255
0.104003287852 0.375008046627 0.609413027763 0 0 255
-0.063435561955 -0.030131733045 0.476200848818 0 0 255
-0.0623891577125 0.439893424511 0.56008630991 0 0 255
-0.0673982203007 0.416393071413 0.601968944073 0 0 255
-0.333953857422 -0.247202798724 -0.616584897041 0 0 255
-0.0735715478659 -0.190909847617 0.572185099125 0 0 255
-0.121419966221 -0.228113785386 -0.393256276846 0 0 255
-0.0592631772161 -0.281304061413 -0.48855689168 0 0 255
-0.108482383192 0.370999753475 0.585948646069 0 0 255
0.101313836873 0.346312493086 0.609853446484 0 0 255
-0.0710327997804 -0.0116440961137 0.47142842412 0 0 255
0.109380252659 -0.220590651035 -0.402244925499 0 0 255
-0.111226595938 0.389027148485 0.560439407825 0 0 255
-0.101048089564 0.365524530411 0.59817802906 0 0 255
0.0260432586074 -0.171884775162 0.537855744362 0 0 255
-0.0112812994048 -0.128646343946 0.51192009449 0 0 255
-0.0723925679922 0.435016661882 0.545008838177 0 0 255
-0.0689459294081 -0.0195234157145 0.472236216068 0 0 255
-0.360379010439 -0.236701235175 -0.594614982605 0 0 255
-0.0085154492408 -0.173047333956 0.52537971735 0 0 255
-0.11684448272 -0.11096522212 0.405139803886 0 0 255
-0.358587175608 -0.240115657449 -0.595741033554 0 0 255
0.104594498873 0.375545650721 0.606171607971 0 0 255
-0.113337539136 0.373219639063 0.577504813671 0 0 255
-0.099533945322 0.370869964361 0.598994910717 0 0 255
-0.00206609698944 0.410373866558 0.72891575098 0 0 255
