ply
format ascii 1.0
comment https://github.com/EricCJoyce
element vertex 856
property float x
property float y
property float z
property uchar red
property uchar green
property uchar blue
end_header
-0.577715814114 -0.123688444495 0.327841818333 0 0 255
0.0216010119766 -0.0274350047112 0.617308437824 0 0 255
-0.547581613064 -0.069066002965 1.07482266426 0 0 255
-0.0473900847137 -0.026224533096 0.589489459991 0 0 255
-0.19683624804 -0.0357166603208 0.875987768173 0 0 255
-0.452518224716 -0.04787620157 1.02262735367 0 0 255
0.41793218255 -0.0118045751005 -0.0500549226999 0 0 255
-0.0074560791254 -0.0434036254883 -1.15613615513 0 0 255
-0.530594110489 -0.0438591726124 -0.394185900688 0 0 255
0.0240249801427 -0.026378352195 0.615719258785 0 0 255
-0.159895211458 -0.03415383026 -0.417410582304 0 0 255
-0.0333284698427 -0.0263977181166 0.578068673611 0 0 255
0.283668071032 -0.0389851257205 0.232012987137 0 0 255
0.28549516201 -0.0356926359236 0.379123330116 0 0 255
0.281725972891 -0.0391356498003 0.115066029131 0 0 255
-0.524016737938 -0.0392424315214 0.954313576221 0 0 255
-0.140904009342 -0.0371640399098 -0.659356296062 0 0 255
0.0375279970467 -0.0372948981822 -0.726468086243 0 0 255
-0.0741825476289 -0.0380486622453 -1.10149359703 0 0 255
-0.0594548657537 -0.0388614162803 -1.10033178329 0 0 255
-0.488683789968 -0.0358758196235 1.0417920351 0 0 255
-0.509146153927 -0.0354589037597 -0.406218886375 0 0 255
0.278203725815 -0.0463336855173 0.260613977909 0 0 255
0.401123970747 -0.0110143264756 -0.0502246208489 0 0 255
-0.511636257172 -0.0360715538263 0.777517557144 0 0 255
-0.390012294054 -0.0378708541393 0.833433389664 0 0 255
0.420419901609 -0.0282253138721 0.0694686695933 0 0 255
0.145388230681 -0.0636783912778 -0.710951924324 0 0 255
-0.198407277465 -0.0392375737429 0.901959896088 0 0 255
-0.0729724764824 -0.0411498993635 -1.11897516251 0 0 255
-0.474139481783 -0.046774033457 0.980351567268 0 0 255
-0.538540124893 -0.0580880641937 1.04493510723 0 0 255
0.403452694416 -0.0280617494136 0.132158696651 0 0 255
-0.202153608203 -0.0548189021647 0.781509757042 0 0 255
-0.184445559978 -0.0375164188445 0.915224909782 0 0 255
-0.455115199089 -0.0519384071231 0.971707224846 0 0 255
0.258602380753 -0.0589937642217 0.112327218056 0 0 255
-0.551384449005 -0.100139960647 -0.646952390671 0 0 255
0.0455798022449 -0.0621643364429 -1.12270152569 0 0 255
0.368125021458 -0.0266663301736 0.0988590344787 0 0 255
0.346980422735 -0.0175986140966 -0.0955848097801 0 0 255
-0.469481408596 -0.0482282713056 0.956424236298 0 0 255
-0.0103937117383 -0.0415681041777 -1.1538797617 0 0 255
-0.508490383625 -0.0441315211356 1.05074739456 0 0 255
0.371627748013 -0.0256517976522 0.127599775791 0 0 255
-0.455611258745 -0.048768799752 0.997595846653 0 0 255
-0.337642103434 -0.0439718216658 0.784171700478 0 0 255
0.00996345095336 -0.0482350327075 -1.16971826553 0 0 255
-0.564736664295 -0.0997456908226 0.919526338577 0 0 255
-0.551894545555 -0.0724492892623 0.816303670406 0 0 255
-0.551813364029 -0.0751188397408 0.83184748888 0 0 255
-0.126948475838 -0.0282023400068 0.588595151901 0 0 255
-0.530234277248 -0.0411337018013 0.816116809845 0 0 255
-0.485472917557 -0.0360276922584 1.03622186184 0 0 255
-0.484208345413 -0.0354747213423 1.03321814537 0 0 255
-0.540714144707 -0.0584823898971 -0.670317292213 0 0 255
-0.122952967882 -0.0265084579587 0.598617374897 0 0 255
0.482276797295 -0.0335930809379 -0.0807271525264 0 0 255
-0.183276966214 -0.0337041839957 0.888033568859 0 0 255
0.0698919892311 -0.0632634311914 -0.591507554054 0 0 255
-0.0485089123249 -0.0400658734143 -1.14185619354 0 0 255
-0.539024114609 -0.0595931187272 1.04611909389 0 0 255
-0.509227931499 -0.0385772138834 0.775725960732 0 0 255
0.355010151863 -0.0271546766162 0.0798827260733 0 0 255
-0.097976885736 -0.0255655907094 0.525769293308 0 0 255
-0.52279484272 -0.0406036488712 0.967070877552 0 0 255
0.280614852905 -0.0410302355886 0.325273185968 0 0 255
0.0419046506286 -0.0651872381568 -1.1104927063 0 0 255
-0.482309013605 -0.0355145931244 0.853121399879 0 0 255
-0.192622750998 -0.0410879738629 0.779477357864 0 0 255
0.367431938648 -0.0261810850352 0.097195699811 0 0 255
0.403802245855 -0.012501723133 -0.0498534739017 0 0 255
-0.0678554847836 -0.0402169637382 -1.15526938438 0 0 255
0.476720839739 -0.0336497239769 -0.0173891745508 0 0 255
-0.549593448639 -0.0645376369357 0.814392745495 0 0 255
0.421628236771 -0.0241651572287 -0.0363499633968 0 0 255
-0.562717616558 -0.107875153422 -0.397738665342 0 0 255
-0.0601011328399 -0.0380527675152 -1.10107302666 0 0 255
-0.521745920181 -0.0373826660216 0.887155413628 0 0 255
-0.52436619997 -0.0401608347893 -0.405796140432 0 0 255
-0.55432331562 -0.0770267546177 -0.5911064744 0 0 255
0.368568271399 -0.0265184026212 0.0979401767254 0 0 255
-0.123730242252 -0.0371471233666 -0.658794462681 0 0 255
-0.0602256134152 -0.0258828941733 0.585298240185 0 0 255
0.372759431601 -0.0177026893944 -0.177799016237 0 0 255
0.436115860939 -0.0288818124682 0.0660556107759 0 0 255
-0.56510001421 -0.113815620542 -0.396676510572 0 0 255
-0.470105260611 -0.0476946122944 0.959505736828 0 0 255
-0.439736783504 -0.0385328456759 0.846586763859 0 0 255
-0.116897508502 -0.029656086117 0.504247188568 0 0 255
-0.53972452879 -0.0553351566195 -0.569161176682 0 0 255
0.42163464427 -0.0289420951158 0.0670188963413 0 0 255
0.0381851382554 -0.0465542823076 -1.1686463356 0 0 255
-0.487641692162 -0.0378265529871 1.04546236992 0 0 255
-0.458419084549 -0.0505317673087 0.877256095409 0 0 255
0.470739305019 -0.0345055572689 0.0662427097559 0 0 255
-0.540512382984 -0.0567020699382 -0.671476364136 0 0 255
-0.0459092482924 -0.0400719344616 -1.14123785496 0 0 255
-0.515236139297 -0.034787915647 -0.407861381769 0 0 255
0.377270758152 -0.0244749952108 0.0514016412199 0 0 255
-0.137423157692 -0.0323573425412 -0.417900204659 0 0 255
-0.0845169126987 -0.0251911915839 0.481636077166 0 0 255
-0.45489898324 -0.0466758869588 1.02243769169 0 0 255
-0.547440290451 -0.0897859111428 -0.402774304152 0 0 255
-0.079547084868 -0.0248315446079 0.518247425556 0 0 255
0.0694829300046 -0.0720856785774 -0.759274542332 0 0 255
-0.477637022734 -0.0374589711428 0.851082384586 0 0 255
-0.477144300938 -0.0371109545231 0.849553287029 0 0 255
0.374915093184 -0.0189833007753 -0.0387786440551 0 0 255
-0.209707081318 -0.0628073886037 0.784959495068 0 0 255
0.267670542002 -0.0539078600705 -0.228579983115 0 0 255
-0.517139613628 -0.0396962836385 0.898501992226 0 0 255
-0.523902833462 -0.0441231802106 -0.557551503181 0 0 255
-0.0712462961674 -0.0260233692825 0.499956339598 0 0 255
0.0366785079241 -0.0357156507671 -0.726275682449 0 0 255
-0.00913443043828 -0.043222848326 -1.15723240376 0 0 255
0.476584970951 -0.0319335572422 0.0384797640145 0 0 255
-0.313664972782 -0.0553381331265 0.790118277073 0 0 255
0.0473233275115 -0.0487970337272 -1.15372049809 0 0 255
-0.161145448685 -0.0308785550296 -0.291660249233 0 0 255
-0.47854244709 -0.0432020351291 0.978526890278 0 0 255
-0.486941874027 -0.035787820816 1.03992891312 0 0 255
-0.456675678492 -0.0557271465659 0.931847691536 0 0 255
-0.456508666277 -0.0523672997952 0.97632086277 0 0 255
0.477197319269 -0.0318929217756 -0.0568572282791 0 0 255
-0.45322701335 -0.0494179278612 0.997194468975 0 0 255
-0.550405919552 -0.0864394530654 1.0179066658 0 0 255
-0.475851714611 -0.0388231687248 0.852018237114 0 0 255
-0.528668582439 -0.0484509393573 -0.548632979393 0 0 255
0.434946209192 -0.0126353437081 -0.0837694630027 0 0 255
-0.047391988337 -0.0259181857109 0.442221730947 0 0 255
-0.454488068819 -0.0514377243817 1.07866179943 0 0 255
-0.194575220346 -0.046679995954 0.774805724621 0 0 255
0.276765137911 -0.0510077513754 -0.333969801664 0 0 255
-0.471149414778 -0.0381689034402 0.753353178501 0 0 255
0.368525147438 -0.0215546097606 -0.0333147868514 0 0 255
-0.135960385203 -0.0513189695776 0.961188077927 0 0 255
-0.0710606649518 -0.0259583238512 0.620449602604 0 0 255
-0.579056560993 -0.132075786591 0.328948974609 0 0 255
0.276064634323 -0.0479077063501 0.389370262623 0 0 255
-0.547853052616 -0.0749617442489 -0.398504912853 0 0 255
-0.00726099871099 -0.0434570610523 -1.15728330612 0 0 255
-0.501179516315 -0.0347250811756 0.892548143864 0 0 255
-0.0740832462907 -0.024223241955 0.500035464764 0 0 255
0.281746387482 -0.0373232215643 0.778932452202 0 0 255
-0.528347074986 -0.0399122573435 0.874348342419 0 0 255
0.35951012373 -0.024621669203 0.134688541293 0 0 255
0.0384329743683 -0.0228795800358 0.349893480539 0 0 255
0.281057536602 -0.037998996675 0.234136387706 0 0 255
-0.494316846132 -0.0341651253402 0.835405290127 0 0 255
-0.454081892967 -0.0501900091767 0.997407376766 0 0 255
0.268121570349 -0.0521584413946 0.223651111126 0 0 255
0.275674521923 -0.0475079827011 0.390212148428 0 0 255
0.372308909893 -0.0118535999209 -0.0500689707696 0 0 255
0.263834804296 -0.0601998344064 -0.349802732468 0 0 255
-0.50548273325 -0.0363349802792 0.981304645538 0 0 255
0.143530100584 -0.0629993900657 -0.556452572346 0 0 255
-0.474755167961 -0.0397791415453 0.851353645325 0 0 255
-0.451310098171 -0.0472504347563 0.996936738491 0 0 255
-0.522681355476 -0.0568644218147 -1.17355823517 0 0 255
0.0579719431698 -0.0451745167375 -0.26723831892 0 0 255
0.29058432579 -0.0316557213664 -0.227258905768 0 0 255
-0.0616325289011 -0.0255271270871 0.594146728516 0 0 255
0.357670545578 -0.0270590018481 0.0482224151492 0 0 255
-0.196643829346 -0.038143850863 0.9285145998 0 0 255
-0.0708272382617 -0.0359869860113 -1.15222299099 0 0 255
0.279012322426 -0.0424921624362 0.264612197876 0 0 255
-0.498284220695 -0.0355482324958 0.843294203281 0 0 255
-0.438638448715 -0.0448265559971 0.983275175095 0 0 255
0.252422779799 -0.05432260409 0.22773180902 0 0 255
-0.558171153069 -0.0918000116944 0.896416008472 0 0 255
-0.563677966595 -0.107756920159 1.01983356476 0 0 255
-0.0676870793104 -0.0395529605448 -1.15340697765 0 0 255
0.278354406357 -0.0414668247104 0.390899389982 0 0 255
-0.0677418336272 -0.0252953078598 0.505606114864 0 0 255
-0.554375946522 -0.0968200862408 1.00513541698 0 0 255
-0.121097922325 -0.025933040306 0.566658198833 0 0 255
0.287524938583 -0.0343490317464 -0.24222971499 0 0 255
-0.441248595715 -0.0454300753772 1.00891280174 0 0 255
0.0488574765623 -0.0345817394555 -1.03792834282 0 0 255
-0.440966039896 -0.0448718033731 1.01022768021 0 0 255
-0.535179853439 -0.0460487157106 0.948528766632 0 0 255
-0.13974493742 -0.042731590569 0.905718505383 0 0 255
0.281432658434 -0.0457884594798 -0.399965941906 0 0 255
-0.492848813534 -0.0320618674159 0.835038244724 0 0 255
-0.529794752598 -0.0464064665139 0.993673980236 0 0 255
-0.142424732447 -0.0448760986328 0.920183479786 0 0 255
-0.370462954044 -0.0367593318224 0.809841573238 0 0 255
0.0236757174134 -0.0448977462947 -1.14220190048 0 0 255
-0.537737131119 -0.0501982755959 1.09670746326 0 0 255
0.0494710281491 -0.0473559759557 -1.15103244781 0 0 255
-0.00744620151818 -0.0236403644085 0.44989335537 0 0 255
0.401092886925 -0.0272120311856 0.113715961576 0 0 255
-0.512144327164 -0.0407985560596 0.978526890278 0 0 255
0.0612325444818 -0.047488771379 -0.267833769321 0 0 255
-0.539564073086 -0.053742825985 -0.51899600029 0 0 255
0.281608700752 -0.0548863895237 -0.779702425003 0 0 255
-0.501783311367 -0.0370686948299 0.982678174973 0 0 255
-0.143793791533 -0.0311287455261 -0.305796265602 0 0 255
0.279053837061 -0.0407822206616 0.235251456499 0 0 255
-0.408142447472 -0.0520117878914 0.868939876556 0 0 255
-0.550643622875 -0.0696834102273 0.825965762138 0 0 255
0.0483876354992 -0.0473756231368 -1.15063285828 0 0 255
-0.140987545252 -0.0312588773668 -0.403811812401 0 0 255
-0.541288435459 -0.0542538240552 1.09976422787 0 0 255
-0.477049946785 -0.0382870659232 0.848072171211 0 0 255
-0.488671243191 -0.0332380570471 0.812543869019 0 0 255
-0.32270655036 -0.071272559464 0.779663980007 0 0 255
-0.503938674927 -0.035491425544 0.831902146339 0 0 255
0.346306979656 -0.0173135753721 -0.101502560079 0 0 255
-0.0109018683434 -0.0417131409049 -1.15752577782 0 0 255
0.26721405983 -0.0542762726545 -0.234590709209 0 0 255
-0.143132179976 -0.0454869791865 0.919438004494 0 0 255
0.372876614332 -0.0235341563821 -0.190595507622 0 0 255
-0.122001841664 -0.0324035510421 -0.639878094196 0 0 255
-0.547607123852 -0.0839739814401 -0.43675673008 0 0 255
-0.492754012346 -0.0338652804494 0.828953742981 0 0 255
0.473780721426 -0.0331708416343 -0.178718417883 0 0 255
0.387754440308 -0.0280979964882 0.0675510987639 0 0 255
-0.198986321688 -0.0368993021548 0.901528477669 0 0 255
0.146819725633 -0.0648806095123 -0.713320553303 0 0 255
0.277286708355 -0.0394325070083 0.20600323379 0 0 255
-0.452773958445 -0.0551354624331 1.07883489132 0 0 255
-0.465062499046 -0.0376035086811 0.811859726906 0 0 255
-0.0105720832944 -0.0416177883744 -1.15518951416 0 0 255
0.456318736076 -0.030765645206 0.107296064496 0 0 255
0.140290379524 -0.0598663873971 -0.561154544353 0 0 255
0.143865317106 -0.0627125203609 -0.551391661167 0 0 255
-0.0861824601889 -0.0257280729711 0.475950062275 0 0 255
-0.529453039169 -0.0407635383308 0.971011817455 0 0 255
-0.56317538023 -0.0923532992601 0.823652625084 0 0 255
0.0500457324088 -0.0329831689596 -1.03894340992 0 0 255
-0.449588507414 -0.0467165745795 1.02344334126 0 0 255
-0.168907687068 -0.0317213647068 0.776235640049 0 0 255
-0.459729701281 -0.0492035485804 1.07702040672 0 0 255
0.260176390409 -0.0629346072674 0.785073637962 0 0 255
-0.514348983765 -0.0423253811896 0.905909836292 0 0 255
0.0710071846843 -0.0700516030192 -0.740891635418 0 0 255
-0.448561698198 -0.0602325052023 0.936025381088 0 0 255
-0.346348017454 -0.0387343429029 0.864052832127 0 0 255
-0.459769427776 -0.0555445663631 0.902081370354 0 0 255
0.382956892252 -0.0173118319362 -0.0430990345776 0 0 255
0.257983118296 -0.0557033717632 0.230715528131 0 0 255
0.353568047285 -0.0273938830942 -0.2500680089 0 0 255
-0.546920478344 -0.0696389898658 -0.666809141636 0 0 255
-0.0197421833873 -0.0248718895018 0.622676253319 0 0 255
0.288194298744 -0.0394483171403 -0.401695609093 0 0 255
-0.202368885279 -0.0473513640463 0.958386063576 0 0 255
0.28139179945 -0.0400317683816 0.219067454338 0 0 255
-0.124935947359 -0.0269048195332 0.618376970291 0 0 255
-0.480075746775 -0.0419859737158 1.00497710705 0 0 255
-0.545900225639 -0.0630105733871 -0.403217405081 0 0 255
-0.170947343111 -0.0311689581722 0.778189480305 0 0 255
-0.184362798929 -0.0323250479996 0.887508273125 0 0 255
0.0531636327505 -0.0366779267788 -1.0361366272 0 0 255
0.400215417147 -0.0277933571488 0.112031131983 0 0 255
0.401002168655 -0.0150617146865 -0.149208322167 0 0 255
0.26902988553 -0.055328104645 0.380539268255 0 0 255
0.373891919851 -0.0131738167256 -0.0517575293779 0 0 255
0.351751834154 -0.012134979479 -0.0593703575432 0 0 255
-0.448021322489 -0.0523908548057 0.972274422646 0 0 255
-0.501797616482 -0.0382890366018 0.949957251549 0 0 255
-0.186375111341 -0.0391995124519 0.941812396049 0 0 255
-0.545076429844 -0.063088722527 -0.401506900787 0 0 255
-0.500544667244 -0.0348163731396 1.01858711243 0 0 255
0.35780620575 -0.0197944287211 -0.182119324803 0 0 255
-0.0672849416733 -0.0407563149929 -1.15118217468 0 0 255
-0.528752326965 -0.0460856109858 -0.543771147728 0 0 255
0.266559332609 -0.0607035495341 -0.349379688501 0 0 255
0.0353788696229 -0.0370254553854 -0.727663874626 0 0 255
-0.134442090988 -0.0520819164813 0.961087465286 0 0 255
0.400185376406 -0.028717385605 0.13031925261 0 0 255
0.339108616114 -0.0259963292629 -0.252523362637 0 0 255
-0.305063933134 -0.0703352019191 0.78570920229 0 0 255
-0.183430701494 -0.0323481075466 0.888029277325 0 0 255
-0.0829560235143 -0.0270699709654 0.522328019142 0 0 255
0.286656469107 -0.0409005582333 -0.378067612648 0 0 255
0.394677609205 -0.0279630031437 0.129815176129 0 0 255
0.409978359938 -0.0285857692361 0.105749517679 0 0 255
-0.527384400368 -0.0402752198279 0.882225215435 0 0 255
-0.0698409751058 -0.0237413551658 0.619844853878 0 0 255
-0.198318004608 -0.0369566008449 0.928957164288 0 0 255
-0.488077402115 -0.0376566760242 1.03916227818 0 0 255
-0.133142650127 -0.0274156369269 0.514766097069 0 0 255
0.143163636327 -0.058503229171 -0.399899929762 0 0 255
0.406681865454 -0.0278553348035 0.127768158913 0 0 255
-0.5690497756 -0.1189397946 -0.658342123032 0 0 255
-0.465846300125 -0.0368542969227 0.809649288654 0 0 255
-0.534298181534 -0.0468502789736 0.85510468483 0 0 255
-0.344997137785 -0.0385838933289 0.865283250809 0 0 255
-0.0865016654134 -0.0274314172566 0.55897384882 0 0 255
-0.348928660154 -0.0356493033469 0.862520098686 0 0 255
0.288222014904 -0.0346841402352 0.780454993248 0 0 255
-0.524956941605 -0.0366785228252 0.824538528919 0 0 255
-0.00779908057302 -0.0433709397912 -1.15292882919 0 0 255
-0.18930888176 -0.0392803661525 0.782209157944 0 0 255
-0.0801982134581 -0.0360104553401 -1.01104080677 0 0 255
-0.299849122763 -0.0760833993554 0.7792288661 0 0 255
0.273508161306 -0.050490822643 0.783678650856 0 0 255
-0.548845827579 -0.0755316242576 -0.439827740192 0 0 255
-0.504903495312 -0.0370507724583 0.897598743439 0 0 255
-0.496419996023 -0.0366506576538 1.03326368332 0 0 255
-0.530015766621 -0.0391900762916 -0.399106502533 0 0 255
-0.522570967674 -0.0471006818116 1.00249826908 0 0 255
0.145779773593 -0.0642176270485 -0.714551270008 0 0 255
-0.510238409042 -0.0358296558261 0.791382968426 0 0 255
-0.545083880424 -0.079041980207 1.02284526825 0 0 255
-0.387537747622 -0.0378906168044 0.833919346333 0 0 255
-0.1676505059 -0.0325644500554 0.778531908989 0 0 255
0.146683067083 -0.0584027916193 -0.399198234081 0 0 255
0.144305944443 -0.0649555400014 -0.711004018784 0 0 255
-0.0534860566258 -0.0392803624272 -1.15897119045 0 0 255
0.484777390957 -0.0349140577018 -0.268869519234 0 0 255
0.278300315142 -0.0429936349392 -0.234445691109 0 0 255
0.141260892153 -0.0619902908802 -0.716180384159 0 0 255
0.0208761263639 -0.0290728677064 0.615652799606 0 0 255
-0.0452953465283 -0.0233557894826 0.442843675613 0 0 255
-0.501557290554 -0.0355553515255 1.01779174805 0 0 255
-0.517562627792 -0.0406165905297 0.889843583107 0 0 255
-0.473420351744 -0.04488921538 0.981871724129 0 0 255
-0.188241809607 -0.0328954569995 0.861998856068 0 0 255
0.374335289001 -0.013642558828 -0.0483538545668 0 0 255
-0.533815205097 -0.042432397604 0.950063824654 0 0 255
0.372823745012 -0.020986309275 -0.190905317664 0 0 255
-0.489137262106 -0.0350796766579 0.833473742008 0 0 255
-0.407127171755 -0.0472932420671 0.867686152458 0 0 255
-0.0546220541 -0.024714384228 0.58751386404 0 0 255
0.37416946888 -0.013495544903 -0.0493524186313 0 0 255
0.00629164138809 -0.0284993555397 0.592509686947 0 0 255
-0.458172887564 -0.0600524544716 0.905987203121 0 0 255
0.278231948614 -0.0464311055839 -0.234857469797 0 0 255
0.2754535079 -0.0468189418316 0.388537228107 0 0 255
-0.136189669371 -0.0448678210378 0.906203627586 0 0 255
-0.532303750515 -0.0474739633501 0.856311798096 0 0 255
0.149244651198 -0.0541101880372 -0.248223930597 0 0 255
-0.200160697103 -0.0405821204185 -0.221990391612 0 0 255
-0.200109228492 -0.0397595763206 -0.221257120371 0 0 255
-0.0671645700932 -0.0388845019042 -1.10120737553 0 0 255
0.0477051585913 -0.0317221358418 -0.247233390808 0 0 255
-0.394796729088 -0.0365203954279 0.769231855869 0 0 255
-0.170393362641 -0.0326013341546 0.776353180408 0 0 255
0.023965889588 -0.0265647284687 0.620002090931 0 0 255
0.360480636358 -0.0276949293911 0.0290983878076 0 0 255
-0.561169326305 -0.111991889775 1.07942557335 0 0 255
-0.0524681843817 -0.0406006090343 -1.14480805397 0 0 255
-0.168525904417 -0.0316920094192 0.771388709545 0 0 255
-0.521074295044 -0.0387641899288 0.824372828007 0 0 255
0.0815241709352 -0.066587895155 0.789009690285 0 0 255
0.400440573692 -0.0274129845202 0.118049032986 0 0 255
-0.168158829212 -0.0310021936893 0.768908321857 0 0 255
-0.193222135305 -0.0311409253627 0.861953020096 0 0 255
-0.344848185778 -0.0353507064283 0.864581763744 0 0 255
-0.44280141592 -0.0497010238469 1.03691995144 0 0 255
-0.443080127239 -0.0537460111082 1.07577848434 0 0 255
0.405054330826 -0.0277952458709 0.126429542899 0 0 255
-0.560442328453 -0.113250516355 -0.675526499748 0 0 255
0.281821370125 -0.047357108444 -0.629633963108 0 0 255
-0.475415378809 -0.0351817831397 0.826896905899 0 0 255
-0.452631801367 -0.0479824617505 1.05076432228 0 0 255
-0.121864490211 -0.0336748510599 -0.414294928312 0 0 255
0.283536672592 -0.0524548515677 -0.781328499317 0 0 255
0.401644736528 -0.0281526334584 0.134082764387 0 0 255
-0.480571776628 -0.0409289188683 1.00462055206 0 0 255
-0.572543144226 -0.126412093639 -0.0840303078294 0 0 255
-0.530688405037 -0.0423998348415 0.843504071236 0 0 255
0.0700315609574 -0.0576920062304 -0.255863010883 0 0 255
-0.390182495117 -0.0358087420464 0.834424555302 0 0 255
-0.542170882225 -0.0598434135318 1.03644454479 0 0 255
-0.453301310539 -0.0488796643913 1.05089437962 0 0 255
-0.187459096313 -0.0356585308909 0.940547525883 0 0 255
-0.494920223951 -0.0333697758615 0.837678432465 0 0 255
-0.528955161572 -0.0398635864258 0.956076562405 0 0 255
0.353410840034 -0.0165930651128 -0.0373433865607 0 0 255
-0.54834407568 -0.0857789069414 1.02021026611 0 0 255
-0.543684899807 -0.0559211559594 -0.625112473965 0 0 255
-0.0878774449229 -0.0248312149197 0.558385431767 0 0 255
-0.49518212676 -0.0371734909713 1.02955436707 0 0 255
-0.152441039681 -0.0344768315554 -0.41906607151 0 0 255
-0.44817468524 -0.0388823375106 0.799241065979 0 0 255
-0.0538251660764 -0.0262849889696 0.590646088123 0 0 255
-0.527000486851 -0.0457241460681 -0.522980988026 0 0 255
-0.0678916275501 -0.0388833470643 -1.15027689934 0 0 255
-0.170974001288 -0.033029332757 0.778591930866 0 0 255
-0.135505214334 -0.0516765378416 0.963513672352 0 0 255
0.441519707441 -0.0304259527475 -0.0364494249225 0 0 255
0.350928992033 -0.0229452066123 -0.0276343598962 0 0 255
-0.497665315866 -0.034506611526 0.842715919018 0 0 255
0.00573293259367 -0.0269991178066 0.593732535839 0 0 255
0.46934863925 -0.0332751348615 -0.0297712851316 0 0 255
0.28640204668 -0.0344444997609 -0.240190327168 0 0 255
-0.0872228890657 -0.0252698231488 0.560352981091 0 0 255
-0.436044692993 -0.0383656695485 0.799691438675 0 0 255
0.397712558508 -0.0227846726775 -0.0316571332514 0 0 255
0.26754117012 -0.0518239662051 0.380565106869 0 0 255
-0.485550582409 -0.0359210446477 1.03251886368 0 0 255
-0.546132564545 -0.0654871463776 0.897609531879 0 0 255
0.411842495203 -0.0276601891965 0.0666571334004 0 0 255
0.454761475325 -0.0298165157437 0.0664407461882 0 0 255
-0.0343226715922 -0.0256572347134 0.577521502972 0 0 255
-0.451918631792 -0.0488146357238 1.05094850063 0 0 255
-0.510014295578 -0.0355428382754 -0.4258723557 0 0 255
-0.0824485644698 -0.0250258725137 0.511618316174 0 0 255
0.340584158897 -0.0268671568483 -0.233644679189 0 0 255
-0.354019343853 -0.0348557606339 0.806232750416 0 0 255
-0.346493422985 -0.0352984070778 0.86341124773 0 0 255
-0.546168982983 -0.0605708435178 -0.436388581991 0 0 255
0.392316609621 -0.0277036800981 0.124148018658 0 0 255
0.441344112158 -0.028038950637 -0.0366780348122 0 0 255
0.349303305149 -0.0145170940086 -0.0775933787227 0 0 255
-0.0969332978129 -0.0282337237149 0.603727698326 0 0 255
-0.470294654369 -0.0360059216619 0.80914580822 0 0 255
0.36623519659 -0.0237960834056 0.0993435755372 0 0 255
-0.0450614131987 -0.0395444221795 -1.16060960293 0 0 255
0.480162769556 -0.0328453779221 -0.185610815883 0 0 255
-0.347114622593 -0.0391704365611 0.862565875053 0 0 255
0.282391786575 -0.0551522262394 -0.807604730129 0 0 255
-0.457794994116 -0.0542700737715 0.88043153286 0 0 255
-0.444176793098 -0.0488200932741 1.0352127552 0 0 255
-0.453930586576 -0.0544660724699 1.07878673077 0 0 255
-0.52681517601 -0.0394475720823 0.864329040051 0 0 255
0.285497695208 -0.0379515178502 -0.247003674507 0 0 255
-0.469259381294 -0.0485213771462 0.959631502628 0 0 255
0.0649229884148 -0.0542851127684 0.18392495811 0 0 255
-0.47246786952 -0.047174282372 0.969402194023 0 0 255
0.283246934414 -0.0353224948049 -0.241501376033 0 0 255
0.399353146553 -0.0283797588199 0.133082702756 0 0 255
0.1478112638 -0.0539568886161 -0.244315013289 0 0 255
-0.56802290678 -0.103211462498 0.957678854465 0 0 255
-0.446560144424 -0.0591918975115 0.938925147057 0 0 255
0.415518194437 -0.0290044564754 0.0682242512703 0 0 255
0.28253775835 -0.0401062890887 -0.245018079877 0 0 255
-0.520153224468 -0.0381536744535 0.836487233639 0 0 255
-0.545813500881 -0.0650641545653 0.910493314266 0 0 255
-0.438183873892 -0.0528190657496 0.958082735538 0 0 255
0.415015697479 -0.0183033626527 -0.150442272425 0 0 255
0.28910189867 -0.0353851094842 -0.377774596214 0 0 255
0.0981370583177 -0.0691884309053 -0.819457292557 0 0 255
0.050644107163 -0.0275892950594 0.341058015823 0 0 255
-0.514648020267 -0.0392224490643 0.922175049782 0 0 255
-0.511425614357 -0.0358939468861 0.776160120964 0 0 255
-0.17037563026 -0.0320102386177 0.762168645859 0 0 255
0.435080468655 -0.0289934910834 0.0684478655457 0 0 255
-0.449406355619 -0.0524078309536 1.06392371655 0 0 255
-0.327533006668 -0.0348319783807 0.859823644161 0 0 255
0.371990352869 -0.0220593884587 -0.192593500018 0 0 255
-0.540387094021 -0.0562832802534 -0.569620192051 0 0 255
-0.345999717712 -0.0378134027123 0.86154538393 0 0 255
-0.472974300385 -0.0481768622994 0.969873666763 0 0 255
-0.51533138752 -0.0399121306837 0.929351210594 0 0 255
-0.0563454665244 -0.0392862893641 -1.15891027451 0 0 255
-0.455336391926 -0.0531608425081 1.07813811302 0 0 255
-0.439421802759 -0.0460719130933 1.00973296165 0 0 255
-0.50798946619 -0.0348543077707 -0.419274508953 0 0 255
-0.557203114033 -0.0926858186722 0.853679835796 0 0 255
0.472940504551 -0.0346336066723 -0.0436153225601 0 0 255
-0.0646196976304 -0.035900708288 -1.01230704784 0 0 255
0.267487972975 -0.0519090220332 0.22590303421 0 0 255
-0.16906683147 -0.0307767856866 0.769747555256 0 0 255
-0.12134245038 -0.035973072052 -0.638558089733 0 0 255
-0.533091187477 -0.0461497940123 0.839406788349 0 0 255
-0.51039981842 -0.0436681620777 1.04066371918 0 0 255
0.0611989200115 -0.0460546165705 0.344208776951 0 0 255
-0.185717269778 -0.038704443723 0.940902769566 0 0 255
-0.0208242442459 -0.0247740224004 0.604980230331 0 0 255
-0.133270442486 -0.051343947649 0.961791932583 0 0 255
0.39795845747 -0.0275345519185 0.120621174574 0 0 255
0.0032643689774 -0.0470475330949 -1.15879547596 0 0 255
-0.139623820782 -0.0385479964316 -0.646809995174 0 0 255
-0.166685700417 -0.0303981956095 0.761611282825 0 0 255
0.386892616749 -0.0117380423471 -0.0506451837718 0 0 255
0.499157398939 -0.0356543399394 -0.229778200388 0 0 255
-0.560179889202 -0.103499598801 -0.579008638859 0 0 255
0.413707405329 -0.00758562190458 -0.0568308159709 0 0 255
0.482182234526 -0.033711977303 -0.0773581117392 0 0 255
-0.525236308575 -0.0394925065339 0.889307320118 0 0 255
0.0208737105131 -0.0283160563558 0.619441211224 0 0 255
-0.562034785748 -0.0977683290839 -0.634899675846 0 0 255
0.474391460419 -0.0314503125846 -0.0591250248253 0 0 255
-0.358844399452 -0.0366321206093 0.807362616062 0 0 255
0.475138902664 -0.0321663320065 0.138049140573 0 0 255
0.26811414957 -0.0555943399668 0.378173917532 0 0 255
-0.518726348877 -0.0402377322316 0.889280438423 0 0 255
0.408826619387 -0.026902532205 0.107200853527 0 0 255
0.388486891985 -0.0290420688689 0.0684012696147 0 0 255
-0.562178432941 -0.109193146229 -0.578546524048 0 0 255
0.261018246412 -0.0539080388844 0.24952493608 0 0 255
0.0506159700453 -0.0374832749367 -0.430978953838 0 0 255
-0.34542915225 -0.0382433272898 0.863506376743 0 0 255
-0.538695454597 -0.0465848483145 1.10311162472 0 0 255
-0.298944950104 -0.0733620375395 -0.818794488907 0 0 255
-0.513551771641 -0.0435371845961 0.920522093773 0 0 255
-0.455624133348 -0.0535669662058 1.08028995991 0 0 255
-0.543640971184 -0.0827953889966 1.0246065855 0 0 255
-0.0964932590723 -0.0269365049899 0.603739023209 0 0 255
-0.461951225996 -0.0369050055742 0.810838401318 0 0 255
0.0690208300948 -0.0575272962451 -0.423117041588 0 0 255
-0.531406164169 -0.0512151047587 -0.566353619099 0 0 255
-0.532556295395 -0.0418099872768 0.842359721661 0 0 255
-0.0664684921503 -0.039677221328 -1.15068936348 0 0 255
0.473046392202 -0.0313812084496 0.0304720457643 0 0 255
-0.446483314037 -0.0535091273487 1.06445932388 0 0 255
0.265244752169 -0.0540549829602 0.205034762621 0 0 255
0.481115996838 -0.0342702306807 -0.0701377540827 0 0 255
0.0537802651525 -0.0388113744557 -0.265247195959 0 0 255
0.290769010782 -0.0312699601054 -0.224163591862 0 0 255
-0.517086565495 -0.0370306558907 0.833712041378 0 0 255
-0.539314329624 -0.0493036620319 -0.393962472677 0 0 255
-0.198791995645 -0.0422384142876 -0.336822330952 0 0 255
-0.183518141508 -0.0386745929718 0.940308690071 0 0 255
-0.139766454697 -0.0540212057531 0.934954345226 0 0 255
-0.551168382168 -0.0747538581491 0.950807571411 0 0 255
-0.46354174614 -0.0394884869456 0.807782590389 0 0 255
-0.104400768876 -0.026969762519 0.604272425175 0 0 255
0.491621255875 -0.0352026000619 -0.275326192379 0 0 255
-0.484414726496 -0.0387202315032 1.00663399696 0 0 255
-0.078261397779 -0.0344277732074 -1.01070642471 0 0 255
-0.197418481112 -0.0422488488257 -0.336564213037 0 0 255
0.420738756657 -0.0140090752393 -0.122603811324 0 0 255
-0.317412734032 -0.0727191641927 0.779562950134 0 0 255
-0.083434484899 -0.0274527687579 0.445982068777 0 0 255
0.288097918034 -0.0359233617783 -0.378831058741 0 0 255
0.142928600311 -0.0560239739716 -0.397050231695 0 0 255
-0.522407114506 -0.0356276445091 0.834942936897 0 0 255
-0.561861276627 -0.106742314994 1.02075302601 0 0 255
-0.463640987873 -0.0396462641656 0.811959326267 0 0 255
-0.460752099752 -0.0566738806665 0.900175392628 0 0 255
-0.403365403414 -0.0379974395037 0.835857987404 0 0 255
0.337839126587 -0.0258167758584 -0.252977848053 0 0 255
-0.200487971306 -0.0310373678803 0.864019572735 0 0 255
-0.445125102997 -0.0473321229219 1.03686833382 0 0 255
0.498802036047 -0.0352320410311 -0.234001398087 0 0 255
-0.456160753965 -0.0531298927963 1.07744896412 0 0 255
-0.575789511204 -0.122584983706 0.328141391277 0 0 255
-0.525729894638 -0.0367679074407 0.815787732601 0 0 255
0.477288305759 -0.0312593765557 0.0338559634984 0 0 255
0.461578637362 -0.0331465378404 0.0743223726749 0 0 255
-0.52054131031 -0.0471833199263 1.03187155724 0 0 255
-0.545837819576 -0.063109703362 -0.570307016373 0 0 255
-0.0850719437003 -0.024887399748 0.581221878529 0 0 255
-0.51380866766 -0.0434517674148 0.921740591526 0 0 255
0.267477363348 -0.0540931634605 -0.226787447929 0 0 255
-0.203200638294 -0.0455018728971 0.958265066147 0 0 255
-0.529911637306 -0.0392234288156 0.816602706909 0 0 255
-0.489272594452 -0.0407259948552 0.977495610714 0 0 255
-0.523796141148 -0.0382261276245 0.844409644604 0 0 255
-0.397560358047 -0.0354793667793 0.832330167294 0 0 255
0.471299022436 -0.0359475426376 -0.175076946616 0 0 255
-0.368644714355 -0.0366262719035 0.807005107403 0 0 255
0.273296684027 -0.0421480163932 0.225681200624 0 0 255
-0.505250394344 -0.0371832959354 0.791777014732 0 0 255
-0.565526604652 -0.117599725723 1.01343369484 0 0 255
-0.500940561295 -0.0357304289937 1.03835713863 0 0 255
0.491493105888 -0.032646894455 -0.229240998626 0 0 255
0.270934134722 -0.0511284507811 -0.250291764736 0 0 255
0.290731579065 -0.0358702503145 -0.378472477198 0 0 255
0.0958408340812 -0.070260129869 -0.825765669346 0 0 255
-0.44179803133 -0.0527414791286 0.959071099758 0 0 255
-0.554188966751 -0.0768606290221 0.951091527939 0 0 255
0.0411086678505 -0.0315334014595 -0.264694452286 0 0 255
-0.140960365534 -0.0489961281419 0.974155426025 0 0 255
-0.485106736422 -0.0348827913404 0.851151943207 0 0 255
-0.545583248138 -0.0588643066585 -0.408313512802 0 0 255
-0.0542817749083 -0.0254323855042 0.597651183605 0 0 255
0.404401928186 -0.0186798591167 -0.0372787080705 0 0 255
-0.197028234601 -0.0311487056315 0.861754894257 0 0 255
-0.513441622257 -0.0433915965259 1.04105472565 0 0 255
0.40780210495 -0.0198998879641 -0.0386186800897 0 0 255
-0.456601828337 -0.056049939245 0.964104473591 0 0 255
-0.555912196636 -0.096258610487 1.06950223446 0 0 255
-0.0565925203264 -0.0394277945161 -1.15585410595 0 0 255
-0.518216311932 -0.0393056869507 0.890565872192 0 0 255
-0.139180004597 -0.0539222806692 0.932827472687 0 0 255
0.336281329393 -0.0743452981114 1.02041697502 0 0 255
-0.44608733058 -0.0564814731479 1.06559348106 0 0 255
0.496093064547 -0.0345016606152 -0.229189321399 0 0 255
0.287165910006 -0.047922745347 -0.685790002346 0 0 255
-0.546127319336 -0.0733520910144 1.00521147251 0 0 255
-0.199985533953 -0.0402729250491 -0.337374538183 0 0 255
-0.546303570271 -0.0695057064295 -0.440715640783 0 0 255
-0.52496534586 -0.0433761775494 -0.556371212006 0 0 255
0.26491895318 -0.0542280189693 0.212045833468 0 0 255
0.261872142553 -0.0666802451015 -0.660550355911 0 0 255
-0.0255057867616 -0.0427919924259 -1.1412024498 0 0 255
-0.0428586490452 -0.0261416900903 0.587803602219 0 0 255
0.291442096233 -0.0402696020901 -0.531622111797 0 0 255
-0.514190137386 -0.0424868799746 0.930394470692 0 0 255
-0.158380836248 -0.0295139271766 -0.173764675856 0 0 255
0.281340450048 -0.0411283448339 0.327413231134 0 0 255
0.474000692368 -0.0308375451714 0.141005143523 0 0 255
-0.0672400146723 -0.0262899715453 0.505819797516 0 0 255
-0.455866158009 -0.0440285429358 1.04974687099 0 0 255
-0.513940572739 -0.0423019602895 0.926398813725 0 0 255
-0.387851566076 -0.0375482663512 0.826503753662 0 0 255
-0.197778701782 -0.0447911806405 -0.450794965029 0 0 255
-0.527021408081 -0.0403725430369 0.884339749813 0 0 255
0.056201480329 -0.0347034074366 -1.04138553143 0 0 255
-0.462700396776 -0.0518196970224 0.971824765205 0 0 255
-0.499609559774 -0.0373872034252 0.820385456085 0 0 255
0.277641952038 -0.0447846800089 0.324501276016 0 0 255
0.277087569237 -0.0444505400956 0.314584374428 0 0 255
-0.499370783567 -0.0344622842968 0.911715447903 0 0 255
0.358444899321 -0.0255807824433 0.0327323004603 0 0 255
0.379326194525 -0.0178251825273 -0.174538061023 0 0 255
0.400276988745 -0.0149331009015 -0.152008473873 0 0 255
-0.492338061333 -0.0375849567354 0.977142989635 0 0 255
0.382772833109 -0.0253497809172 0.0729868784547 0 0 255
-0.409364104271 -0.048286318779 0.867812156677 0 0 255
-0.449085921049 -0.0465868748724 1.03661358356 0 0 255
0.291002243757 -0.0428285114467 -0.650985777378 0 0 255
0.457302719355 -0.0332819595933 -0.2561185956 0 0 255
0.378244817257 -0.0182694792747 -0.177634254098 0 0 255
0.403812676668 -0.0190539769828 -0.0364771038294 0 0 255
-0.50890737772 -0.0407606400549 0.989929914474 0 0 255
0.281257688999 -0.0402761101723 0.292577296495 0 0 255
0.491228699684 -0.0331335663795 -0.263732075691 0 0 255
-0.520305335522 -0.0380872264504 0.83504575491 0 0 255
0.27850201726 -0.043584369123 0.291547596455 0 0 255
-0.0522362217307 -0.0228049829602 0.523692548275 0 0 255
-0.393831014633 -0.0378833636642 0.833479881287 0 0 255
-0.117385499179 -0.0299552641809 0.866278648376 0 0 255
0.2569629848 -0.0609167069197 0.781866788864 0 0 255
-0.508466005325 -0.0409341864288 0.896930396557 0 0 255
0.260116249323 -0.0557132549584 0.388663589954 0 0 255
-0.570723712444 -0.125726774335 -0.626585781574 0 0 255
-0.177776008844 -0.0396632067859 -0.81158053875 0 0 255
-0.439558714628 -0.051451690495 0.959248781204 0 0 255
0.425002723932 -0.0307891666889 -0.00170861848164 0 0 255
0.493339240551 -0.0343060418963 -0.272919654846 0 0 255
0.281620383263 -0.0372124649584 0.327301710844 0 0 255
0.400664061308 -0.0189978722483 -0.15155903995 0 0 255
-0.0984406471252 -0.0244875904173 0.603194475174 0 0 255
-0.405804336071 -0.0487324595451 0.866726756096 0 0 255
-0.138825327158 -0.0312416981906 -0.404132634401 0 0 255
-0.201251924038 -0.0457748062909 -0.683446288109 0 0 255
-0.556577086449 -0.0852231308818 1.09260797501 0 0 255
0.0548173747957 -0.0308220367879 0.352911114693 0 0 255
0.288667947054 -0.0395909287035 -0.551863133907 0 0 255
-0.365464389324 -0.0365414693952 0.805244982243 0 0 255
-0.525542378426 -0.0399790070951 0.896859109402 0 0 255
-0.137343019247 -0.0467423945665 1.03764224052 0 0 255
-0.550248265266 -0.0729117766023 -0.413334488869 0 0 255
-0.0651176273823 -0.0236579477787 0.613050997257 0 0 255
-0.360609322786 -0.0356268063188 0.807056367397 0 0 255
-0.0634283423424 -0.0259755514562 0.583233714104 0 0 255
0.00336858956143 -0.0468354001641 -1.16338336468 0 0 255
-0.510912239552 -0.0474940873682 1.05551588535 0 0 255
-0.52639323473 -0.0391118861735 0.941693127155 0 0 255
0.399568229914 -0.0183131005615 -0.152587041259 0 0 255
0.408208787441 -0.00655571231619 -0.0588922537863 0 0 255
-0.556461334229 -0.0938695147634 1.00339055061 0 0 255
-0.545876502991 -0.0619290955365 -0.509392499924 0 0 255
-0.556373894215 -0.0864203870296 -0.573841035366 0 0 255
-0.537978947163 -0.0537481494248 1.05719792843 0 0 255
0.338890224695 -0.0260403752327 -0.232649236917 0 0 255
0.257422685623 -0.0563652217388 0.249851852655 0 0 255
0.475128769875 -0.0327241793275 -0.0175865124911 0 0 255
0.480307072401 -0.0319974832237 -0.0723961666226 0 0 255
-0.531502008438 -0.0453167036176 0.805419683456 0 0 255
0.339161932468 -0.0278665907681 -0.254883557558 0 0 255
-0.314948558807 -0.059125136584 0.7874173522 0 0 255
-0.0784626081586 -0.0407298877835 -1.11417162418 0 0 255
-0.507592082024 -0.0388593040407 0.76288163662 0 0 255
-0.349214434624 -0.0364572256804 0.767897307873 0 0 255
-0.0967890918255 -0.0268821101636 0.602555036545 0 0 255
-0.0506311506033 -0.0408289693296 -1.16094994545 0 0 255
0.280709654093 -0.0454051829875 -0.399313271046 0 0 255
-0.520919919014 -0.0474077761173 1.03335249424 0 0 255
-0.465968579054 -0.0370381958783 0.813625812531 0 0 255
-0.133589670062 -0.0334289446473 0.875916421413 0 0 255
0.468769133091 -0.032986164093 0.00916384160519 0 0 255
-0.105408452451 -0.0314067080617 0.86949634552 0 0 255
-0.526332497597 -0.0364546738565 0.799614846706 0 0 255
-0.186044842005 -0.0310617368668 0.860131680965 0 0 255
-0.334905415773 -0.0531321279705 0.771810472012 0 0 255
-0.485895484686 -0.03322320804 0.851444840431 0 0 255
0.145076066256 -0.0515365898609 -0.251526653767 0 0 255
0.0672025233507 -0.0621573105454 -0.576472699642 0 0 255
-0.50974136591 -0.0372337698936 0.843065142632 0 0 255
0.372999340296 -0.0160794593394 -0.0432268865407 0 0 255
0.4002635777 -0.0276493337005 0.123227775097 0 0 255
0.274669408798 -0.0481477379799 0.225295349956 0 0 255
-0.0721187964082 -0.0256331060082 0.450608313084 0 0 255
0.46760725975 -0.0319375321269 -0.0328796096146 0 0 255
-0.0608037449419 -0.0264274124056 0.593563556671 0 0 255
0.456289380789 -0.0311770495027 0.0315797626972 0 0 255
0.290461272001 -0.028452526778 -0.196913808584 0 0 255
-0.436269342899 -0.0447984188795 0.9822499156 0 0 255
-0.381946116686 -0.0346432626247 0.812156438828 0 0 255
-0.453181415796 -0.0638142079115 0.901254534721 0 0 255
0.357382982969 -0.0240294672549 -0.0201736614108 0 0 255
0.430499762297 -0.0281988941133 0.043729159981 0 0 255
0.455332100391 -0.0310640726238 0.0842857584357 0 0 255
-0.438201367855 -0.0425601154566 0.981929063797 0 0 255
0.093901053071 -0.0706325173378 -0.815538048744 0 0 255
0.285859972239 -0.036048963666 0.386842519045 0 0 255
0.264281570911 -0.0554727055132 -0.23830267787 0 0 255
-0.507914483547 -0.0373043753207 0.823972284794 0 0 255
0.0430624373257 -0.0290485210717 -0.247167885303 0 0 255
-0.141084894538 -0.0480387508869 0.974704384804 0 0 255
-0.331783145666 -0.0345779955387 0.858262717724 0 0 255
0.347458869219 -0.0772207900882 1.0281264782 0 0 255
0.397887736559 -0.0173980277032 -0.151539936662 0 0 255
-0.511076271534 -0.0391904227436 0.971916139126 0 0 255
-0.507355749607 -0.035638988018 0.827502906322 0 0 255
-0.541092157364 -0.073224760592 1.04755711555 0 0 255
0.241936579347 -0.0593600794673 -0.307683050632 0 0 255
-0.363395988941 -0.0394592881203 0.861231565475 0 0 255
0.456728190184 -0.0336318947375 0.0308456011117 0 0 255
0.138408094645 -0.0540535897017 0.222819924355 0 0 255
-0.06551399827 -0.0278776660562 0.595604300499 0 0 255
-0.522905945778 -0.0395913235843 -0.40173920989 0 0 255
-0.199167340994 -0.0437439903617 -0.682277977467 0 0 255
-0.519234657288 -0.0395629368722 0.867004096508 0 0 255
0.426962763071 -0.0270675867796 0.0454429648817 0 0 255
-0.191229879856 -0.0375881753862 -0.83064353466 0 0 255
0.408728301525 -0.0162135735154 -0.039482999593 0 0 255
-0.515906214714 -0.0449363850057 1.04391825199 0 0 255
0.483152478933 -0.0327800884843 -0.186953231692 0 0 255
-0.548659443855 -0.068954885006 0.836241006851 0 0 255
-0.506506919861 -0.036369279027 0.798195958138 0 0 255
0.477661311626 -0.0310372933745 0.0290590822697 0 0 255
-0.507523834705 -0.0388369970024 0.76168358326 0 0 255
0.455436199903 -0.0325873121619 0.0314484201372 0 0 255
-0.509626030922 -0.0433495044708 1.04827618599 0 0 255
-0.574323952198 -0.12441598624 -0.378590136766 0 0 255
-0.484884500504 -0.0391145609319 1.00961852074 0 0 255
0.376994162798 -0.0153976585716 -0.0440411530435 0 0 255
-0.10497444123 -0.0237647816539 0.60343170166 0 0 255
-0.202977329493 -0.0499033294618 0.984988331795 0 0 255
-0.563418507576 -0.112043045461 -0.416179805994 0 0 255
-0.564136326313 -0.0872133821249 0.952898204327 0 0 255
-0.436911642551 -0.0455477871001 0.977943301201 0 0 255
0.255780041218 -0.0562656112015 0.231277778745 0 0 255
0.279949456453 -0.0557855218649 -0.793958306313 0 0 255
-0.0793722271919 -0.03670829162 -1.1451677084 0 0 255
-0.126719117165 -0.0356035381556 -0.518146812916 0 0 255
-0.517243802547 -0.0393544174731 0.888680040836 0 0 255
-0.490657567978 -0.0356664471328 1.03721499443 0 0 255
-0.177867561579 -0.0396739989519 -0.810345351696 0 0 255
0.0534911714494 -0.0349466539919 0.189037397504 0 0 255
0.264738798141 -0.0623231083155 -0.50578469038 0 0 255
0.282581031322 -0.0479439012706 -0.634019076824 0 0 255
0.293631702662 -0.033486392349 -0.345370680094 0 0 255
-0.206133931875 -0.0483304671943 0.985850453377 0 0 255
-0.0300273671746 -0.0233131274581 0.442280232906 0 0 255
0.0569463819265 -0.0367789566517 -1.04126143456 0 0 255
-0.520809054375 -0.0394023954868 0.833800792694 0 0 255
-0.547162890434 -0.0705229640007 -0.409921824932 0 0 255
-0.0206637345254 -0.0268636923283 0.603949964046 0 0 255
0.2870259583 -0.0398307368159 -0.408882826567 0 0 255
-0.339211821556 -0.0459741465747 0.768675625324 0 0 255
0.0594119541347 -0.0485166572034 -0.438016057014 0 0 255
0.493964344263 -0.0353474840522 -0.265255153179 0 0 255
-0.490684390068 -0.0343794636428 0.837201118469 0 0 255
-0.546616792679 -0.0741796940565 -0.441313534975 0 0 255
-0.515156209469 -0.0447524487972 0.962105035782 0 0 255
-0.361842274666 -0.0349757410586 0.808508038521 0 0 255
-0.199008494616 -0.0447687990963 -0.45130828023 0 0 255
0.00800945051014 -0.0263250358403 0.592969477177 0 0 255
-0.490771472454 -0.0360546596348 0.791758596897 0 0 255
-0.108021683991 -0.0355239026248 0.869571149349 0 0 255
-0.532506108284 -0.0549431219697 -1.10082840919 0 0 255
-0.300532102585 -0.0765653550625 -0.824059963226 0 0 255
0.422593474388 -0.0302367489785 0.0841980278492 0 0 255
0.496969848871 -0.0345132090151 -0.233742550015 0 0 255
0.372739285231 -0.0108417663723 -0.071953997016 0 0 255
-0.1369792521 -0.0303908474743 0.86408752203 0 0 255
0.059328455478 -0.0625482797623 -0.758395910263 0 0 255
-0.362717628479 -0.0417112261057 0.861480653286 0 0 255
-0.438945233822 -0.0514785535634 0.957503020763 0 0 255
-0.496750026941 -0.0344294086099 0.837672829628 0 0 255
-0.188881322742 -0.0389072336257 -0.831763029099 0 0 255
-0.557669401169 -0.102917671204 0.986645936966 0 0 255
0.434191673994 -0.029089378193 0.0705018341541 0 0 255
0.412756115198 -0.0082348305732 -0.0576744750142 0 0 255
-0.521456003189 -0.0449880287051 -0.541134357452 0 0 255
-0.50910949707 -0.0346125103533 0.777627766132 0 0 255
0.090281188488 -0.0687601044774 -0.830729484558 0 0 255
-0.194926351309 -0.0403647497296 1.06024110317 0 0 255
-0.204436346889 -0.0485910102725 0.985162198544 0 0 255
-0.547943711281 -0.0704374462366 -0.441161632538 0 0 255
0.409179240465 -0.0286340676248 0.115639597178 0 0 255
-0.133681580424 -0.045184250921 0.906250536442 0 0 255
-0.508078753948 -0.0378544218838 0.830296099186 0 0 255
0.435043603182 -0.0280899535865 -0.0359066687524 0 0 255
0.26243057847 -0.0697249099612 -0.661971151829 0 0 255
-0.472491443157 -0.0378008335829 0.82997494936 0 0 255
-0.504804670811 -0.0374420508742 0.797310173512 0 0 255
-0.505297541618 -0.0367645770311 0.891396403313 0 0 255
0.429576605558 -0.0310830492526 0.0289163235575 0 0 255
-0.194859936833 -0.0384026505053 0.933690071106 0 0 255
-0.382791370153 -0.0371923968196 0.823179662228 0 0 255
0.468498826027 -0.0320381224155 -0.0341177694499 0 0 255
0.275145024061 -0.0443970672786 0.313381493092 0 0 255
0.0965386033058 -0.0710019096732 -0.820342540741 0 0 255
-0.302198022604 -0.0706597268581 -0.824281394482 0 0 255
-0.555165946484 -0.0931021496654 1.00297474861 0 0 255
0.257914423943 -0.0584646388888 0.109754085541 0 0 255
0.279031217098 -0.0423999726772 0.312950462103 0 0 255
0.165542751551 -0.0656259283423 -0.119382664561 0 0 255
-0.206030368805 -0.0498153679073 1.01747953892 0 0 255
-0.522368013859 -0.036733135581 0.805695831776 0 0 255
-0.0373055972159 -0.0220643132925 0.526295959949 0 0 255
-0.524175047874 -0.0377248711884 0.861151337624 0 0 255
0.378831267357 -0.0215502604842 -0.0327776148915 0 0 255
0.395725607872 -0.0260333381593 0.128132730722 0 0 255
-0.442543298006 -0.048816382885 1.01684212685 0 0 255
0.427336394787 -0.0307565014809 0.0305042229593 0 0 255
0.241206213832 -0.0587249286473 -0.308174610138 0 0 255
0.286139190197 -0.0402705147862 -0.472201257944 0 0 255
-0.33545640111 -0.0509682036936 0.779661476612 0 0 255
-0.29929998517 -0.0747478306293 -0.820368230343 0 0 255
-0.134085565805 -0.0596180036664 1.01581442356 0 0 255
0.344553768635 -0.0169583521783 -0.109496697783 0 0 255
0.403149902821 -0.0163847710937 -0.142483845353 0 0 255
-0.498942345381 -0.0354210324585 1.03170919418 0 0 255
0.354132860899 -0.0238164626062 0.0391324609518 0 0 255
-0.522581160069 -0.0403874032199 0.872788071632 0 0 255
0.284226953983 -0.0423574447632 -0.322548002005 0 0 255
-0.501175165176 -0.035893894732 1.03146481514 0 0 255
-0.0356782227755 -0.0232569742948 0.52555000782 0 0 255
0.0491750240326 -0.0369170978665 -1.03965401649 0 0 255
-0.333767205477 -0.0502567365766 0.764305770397 0 0 255
0.304803401232 -0.0466131269932 -0.822619140148 0 0 255
-0.547506570816 -0.0697740837932 -0.510753154755 0 0 255
-0.53324341774 -0.0471767298877 -0.407077431679 0 0 255
0.471534758806 -0.0337984785438 -0.0421892814338 0 0 255
-0.138282462955 -0.0413296706975 0.892169117928 0 0 255
0.342909097672 -0.0933373644948 1.02641999722 0 0 255
-0.508740603924 -0.0381753183901 -0.453879386187 0 0 255
-0.102821312845 -0.0248502008617 0.603951156139 0 0 255
0.364892303944 -0.012214075774 -0.0580139681697 0 0 255
-0.537642121315 -0.0497626848519 0.854322612286 0 0 255
0.496625214815 -0.0366252437234 -0.272666186094 0 0 255
-0.521562159061 -0.0368613339961 0.80848890543 0 0 255
0.414022237062 -0.0290458388627 0.0693880021572 0 0 255
0.466952472925 -0.0310173109174 0.0408942252398 0 0 255
-0.13679420948 -0.0320805907249 0.861920535564 0 0 255
0.474615424871 -0.0334092639387 -0.00430342601612 0 0 255
-0.435889482498 -0.0356387421489 0.845603585243 0 0 255
-0.126094982028 -0.0260708369315 0.581615507603 0 0 255
0.453025847673 -0.0311103127897 0.114676788449 0 0 255
0.478902876377 -0.0329695530236 -0.0685195475817 0 0 255
-0.518149137497 -0.0364482961595 0.88424962759 0 0 255
-0.551612019539 -0.0785934254527 0.919548511505 0 0 255
0.0952781438828 -0.0706188678741 -0.813664615154 0 0 255
-0.54439753294 -0.0751348808408 1.0474486351 0 0 255
-0.182743489742 -0.0362993329763 -0.803433001041 0 0 255
0.0476121529937 -0.0466327778995 -0.74570530653 0 0 255
-0.452126413584 -0.0386248342693 0.799163281918 0 0 255
0.407656341791 -0.0282406173646 0.125055208802 0 0 255
-0.181131616235 -0.0370947569609 -0.810162246227 0 0 255
-0.470996260643 -0.0365030169487 0.833287239075 0 0 255
-0.518640518188 -0.0457543507218 1.02060067654 0 0 255
-0.522701442242 -0.0422902330756 -0.550867676735 0 0 255
-0.447404384613 -0.0570675656199 1.07824492455 0 0 255
