ply
format ascii 1.0
comment https://github.com/EricCJoyce
element vertex 548
property float x
property float y
property float z
property uchar red
property uchar green
property uchar blue
end_header
-0.335637897253 -0.00245516980067 -0.057058878243 0 255 0
0.162246271968 -0.00343310064636 -0.0702454522252 0 255 0
-0.336757957935 -0.00256354291923 -0.0553765781224 0 255 0
-0.342368930578 -0.0027220856864 -0.0553765781224 0 255 0
0.160214081407 -0.00342882564291 -0.0715982466936 0 255 0
-0.0445108637214 -0.000743528304156 0.128666520119 0 255 0
0.157959446311 -0.00354394759052 -0.0704708844423 0 255 0
-0.340973883867 -0.00240562018007 -0.0614512711763 0 255 0
-0.104909203947 -0.00821250490844 -0.345401346684 0 255 0
-0.0438014268875 -0.000684299098793 0.127807363868 0 255 0
-0.103101015091 -0.00817574374378 -0.345087110996 0 255 0
-0.00816175621003 -0.00167212064844 0.128660693765 0 255 0
-0.104341156781 -0.00827381946146 -0.343704998493 0 255 0
0.277247399092 -0.00382333854213 -0.0762133151293 0 255 0
-0.00949275866151 -0.001545218518 0.125053524971 0 255 0
-0.340964853764 -0.00272503984161 -0.0544418990612 0 255 0
-0.00746091920882 -0.00157002802007 0.126856356859 0 255 0
-0.101137399673 -0.00808443967253 -0.345872551203 0 255 0
-0.0446576364338 -0.000644896004815 0.126412928104 0 255 0
-0.0434140488505 -0.000602361746132 0.126250758767 0 255 0
-0.0508137308061 -0.000775948748924 0.125472426414 0 255 0
0.159169718623 -0.00509086437523 -0.121576316655 0 255 0
-0.037271656096 -0.00906097423285 -0.370666056871 0 255 0
0.156725436449 -0.00353612727486 -0.0714068934321 0 255 0
-0.0383083000779 -0.0091525297612 -0.369300812483 0 255 0
-0.341754674911 -0.00237440573983 -0.062619432807 0 255 0
0.1590911448 -0.00464373407885 -0.0885420963168 0 255 0
0.197783604264 -0.0050859474577 -0.0977607294917 0 255 0
0.158137738705 -0.00522917089984 -0.119183085859 0 255 0
-0.0457867048681 -0.000594632874709 0.124611310661 0 255 0
0.276130110025 -0.00447556609288 -0.0626044049859 0 255 0
0.244172558188 -0.00317007256672 -0.0681419223547 0 255 0
0.274980723858 -0.00399082852527 -0.0739451572299 0 255 0
-0.340133100748 -0.0022545887623 -0.0642419680953 0 255 0
0.214930251241 -0.00541185354814 -0.122878372669 0 255 0
0.279515534639 -0.00370752857998 -0.0773473903537 0 255 0
-0.10238340497 -0.00904546491802 -0.36845946312 0 255 0
-0.0458444543183 -0.0012105734786 0.138080999255 0 255 0
0.158994659781 -0.00356498616748 -0.0693682059646 0 255 0
-0.00873046275228 -0.00207521230914 0.137146770954 0 255 0
0.160458981991 -0.00485318759456 -0.0831020623446 0 255 0
-0.0176082327962 -0.00185674906243 0.126856356859 0 255 0
-0.0370485372841 -0.00914561748505 -0.368671894073 0 255 0
-0.340118467808 -0.00277216569521 -0.0528842136264 0 255 0
0.167086660862 -0.00441270368174 -0.0886541604996 0 255 0
0.198690846562 -0.00503962254152 -0.0982143878937 0 255 0
-0.332010984421 -0.00217308872379 -0.0609968975186 0 255 0
0.43550541997 0.0017842972884 0.199088305235 0 255 0
-0.0487122945487 -0.000821089895908 0.127764180303 0 255 0
0.277805805206 -0.00365321966819 -0.0795974731445 0 255 0
0.241901502013 -0.00313086691312 -0.0704086124897 0 255 0
-0.0512046180665 -0.000733750581276 0.124304994941 0 255 0
-0.333957016468 -0.0023139109835 -0.0591148138046 0 255 0
-0.0371725857258 -0.00877210497856 -0.376938581467 0 255 0
-0.0476186908782 -0.00120924180374 0.13695256412 0 255 0
0.163620129228 -0.00425732322037 -0.0942088216543 0 255 0
0.278389513493 -0.00404967507347 -0.0705429315567 0 255 0
-0.33193820715 -0.00409640138969 -0.0616670548916 0 255 0
0.206873700023 -0.00524287112057 -0.0886881276965 0 255 0
0.279057502747 -0.00357564818114 -0.0805228576064 0 255 0
-0.106894508004 -0.00909757427871 -0.370111733675 0 255 0
-0.0162558928132 -0.00179798121098 0.126405626535 0 255 0
-0.342592447996 -0.00398767413571 -0.070651948452 0 255 0
-0.0364943444729 -0.00869096536189 -0.378297477961 0 255 0
-0.342590987682 -0.00403881631792 -0.0695296898484 0 255 0
0.275529891253 -0.00413461076096 -0.0704522579908 0 255 0
0.276786476374 -0.00369989220053 -0.0792056247592 0 255 0
-0.101027935743 -0.0088832937181 -0.371175527573 0 255 0
0.15350009501 -0.00540622882545 -0.118174083531 0 255 0
-0.0378951244056 -0.000525712908711 0.127989396453 0 255 0
-0.341426968575 -0.00278447265737 -0.0534250363708 0 255 0
-0.343917936087 -0.00248486432247 -0.0615377165377 0 255 0
0.273504316807 -0.0042216363363 -0.0697990432382 0 255 0
-0.0424064621329 -0.000499121262692 0.124611310661 0 255 0
0.206841558218 -0.00410590553656 -0.113637797534 0 255 0
-0.341441452503 -0.002271004254 -0.0646926313639 0 255 0
0.268792062998 -0.00414028484374 -0.0745022967458 0 255 0
0.164529412985 -0.00430399226025 -0.0926221832633 0 255 0
-0.00633779354393 -0.00138412963133 0.123476073146 0 255 0
0.160396486521 -0.00516105489805 -0.119277223945 0 255 0
0.245559409261 -0.0030185370706 -0.0706053450704 0 255 0
-0.275198757648 -0.00269757793285 -0.0571853220463 0 255 0
0.165889531374 -0.00424074847251 -0.0931662321091 0 255 0
0.202319890261 -0.00485432799906 -0.100028887391 0 255 0
-0.103405088186 -0.00804255716503 -0.348195850849 0 255 0
0.162633985281 -0.00470489496365 -0.0850060731173 0 255 0
0.210273712873 -0.00499163614586 -0.0920903533697 0 255 0
-0.342354506254 -0.00323315663263 -0.0441615954041 0 255 0
0.278219670057 -0.00441014766693 -0.0627442225814 0 255 0
-0.332410037518 -0.00242691580206 -0.0556785576046 0 255 0
0.255810886621 -0.00430849101394 -0.121743574739 0 255 0
-0.33148804307 -0.00404254579917 -0.0625690370798 0 255 0
-0.00677285017446 -0.00196168711409 0.135870397091 0 255 0
0.272269189358 -0.0038532728795 -0.0786412209272 0 255 0
0.257414907217 -0.004770365078 -0.110622473061 0 255 0
0.280666410923 -0.00424394663423 -0.0648725554347 0 255 0
0.279046207666 -0.00366178248078 -0.0786412209272 0 255 0
0.268173366785 -0.00423489743844 -0.0728110820055 0 255 0
0.268161684275 -0.00382145540789 -0.0818836912513 0 255 0
-0.0392458513379 -0.000615231809206 0.129115387797 0 255 0
0.435508340597 0.00168140348978 0.201346218586 0 255 0
0.272274434566 -0.00403844984248 -0.0745776742697 0 255 0
0.432300835848 0.00156193983275 0.201978430152 0 255 0
-0.0151745332405 -0.00173042714596 0.125594362617 0 255 0
-0.33308544755 -0.00248711043969 -0.0547771640122 0 255 0
-0.287489265203 -0.00274790078402 -0.0636965334415 0 255 0
-0.0141996080056 -0.00173247861676 0.12624335289 0 255 0
0.204136133194 -0.00482369540259 -0.0995752960443 0 255 0
0.273891568184 -0.00403194501996 -0.0737183988094 0 255 0
0.206748232245 -0.00422752927989 -0.0681419149041 0 255 0
0.280422538519 -0.0043642022647 -0.0623868480325 0 255 0
0.161362200975 -0.00468293996528 -0.0862754136324 0 255 0
0.270442962646 -0.00417076796293 -0.0728110820055 0 255 0
0.43441721797 -0.000155067493324 0.198050811887 0 255 0
0.271153539419 -0.00437385588884 -0.0679178163409 0 255 0
0.26997217536 -0.00423206435516 -0.0717587545514 0 255 0
-0.0412724651396 -0.000723851495422 0.130241453648 0 255 0
-0.10689304024 -0.00914938468486 -0.368974804878 0 255 0
-0.0164764001966 -0.00197893171571 0.130236625671 0 255 0
0.195624738932 -0.00590559281409 -0.124013178051 0 255 0
0.279692143202 -0.00487582245842 -0.0945082008839 0 255 0
0.208212614059 -0.00439818110317 -0.106379754841 0 255 0
0.248379915953 -0.00288739288226 -0.071733430028 0 255 0
0.210142210126 -0.00516292918473 -0.0884159654379 0 255 0
0.166512817144 -0.00409451592714 -0.0959864482284 0 255 0
0.172451198101 -0.00509737757966 -0.0703179761767 0 255 0
-0.105802975595 -0.00904391333461 -0.370612084866 0 255 0
0.198909640312 -0.00474380096421 -0.104565188289 0 255 0
-0.334662079811 -0.00259332521819 -0.053425040096 0 255 0
0.211520731449 -0.00540468282998 -0.125147983432 0 255 0
0.252418905497 -0.00492188334465 -0.110395498574 0 255 0
0.158368572593 -0.00540368352085 -0.115213610232 0 255 0
0.268001168966 -0.00393025763333 -0.0795974731445 0 255 0
0.200043797493 -0.00469106482342 -0.105018846691 0 255 0
-0.049153894186 -0.00115196593106 0.134745553136 0 255 0
0.259311020374 -0.00430689100176 -0.119610130787 0 255 0
0.154916420579 -0.00374220660888 -0.0680090561509 0 255 0
0.258099496365 -0.00486488314345 -0.108125887811 0 255 0
0.437183141708 0.00162575067952 0.203604117036 0 255 0
0.211940675974 -0.00554997706786 -0.121702007949 0 255 0
0.435801595449 -1.05200660983e-05 0.195739075541 0 255 0
0.439694851637 -0.00336511759087 0.185932129622 0 255 0
0.156994864345 -0.00479385210201 -0.129436209798 0 255 0
-0.0108419060707 -0.00171694858 0.127983108163 0 255 0
-0.343290776014 -0.00321699050255 -0.0450961366296 0 255 0
-0.289320409298 -0.00284283375368 -0.0627494826913 0 255 0
0.245276495814 -0.00440199160948 -0.126220047474 0 255 0
-0.0488865412772 -0.00929576531053 -0.372713953257 0 255 0
0.250471025705 -0.0047557791695 -0.0723574906588 0 255 0
0.259321540594 -0.00467922631651 -0.111439570785 0 255 0
0.258092194796 -0.00460631493479 -0.113799922168 0 255 0
0.175713121891 -0.0048563471064 -0.0735820159316 0 255 0
0.247704356909 -0.00296821747907 -0.0703797712922 0 255 0
0.433480501175 -0.000215719410335 0.198800340295 0 255 0
0.435576945543 -6.83887919877e-05 0.196868762374 0 255 0
0.25740262866 -0.00433596968651 -0.120154887438 0 255 0
-0.0468351095915 -0.00931874290109 -0.370939165354 0 255 0
0.201182171702 -0.00478303199634 -0.10229703784 0 255 0
0.280433297157 -0.00403330242261 -0.0696356892586 0 255 0
0.203463450074 -0.00513234455138 -0.0932244285941 0 255 0
0.204586565495 -0.00468683755025 -0.10229703784 0 255 0
0.25906136632 -0.00330276973546 -0.0988948270679 0 255 0
0.157824009657 -0.00569782499224 -0.109101481736 0 255 0
0.211378380656 -0.00566889159381 -0.119442991912 0 255 0
0.15835288167 -0.00484814262018 -0.127404436469 0 255 0
0.171669632196 -0.00319940340705 -0.0695313513279 0 255 0
-0.0203095655888 -0.00209751771763 0.130461961031 0 255 0
-0.0457794517279 -0.000851200369652 0.130241453648 0 255 0
0.198801472783 -0.00571853201836 -0.126146614552 0 255 0
-0.0378893241286 -0.0007309668581 0.132493495941 0 255 0
0.158123672009 -0.0047362158075 -0.13000062108 0 255 0
-0.10252841562 -0.00887671951205 -0.372249305248 0 255 0
0.163628876209 -0.00456720497459 -0.0874087586999 0 255 0
0.16233792901 -0.00426907185465 -0.094745606184 0 255 0
0.170328378677 -0.00325507367961 -0.0691416710615 0 255 0
0.209130182862 -0.0040743383579 -0.112912043929 0 255 0
0.430669158697 -0.00034643811523 0.199924781919 0 255 0
-0.335789561272 -0.0026251829695 -0.053425040096 0 255 0
-0.049159694463 -0.000946711981669 0.130241453648 0 255 0
0.507013857365 -0.00993391964585 0.114349678159 0 255 0
0.209948837757 -0.00526670040563 -0.0862604305148 0 255 0
0.261933833361 -0.00281309592538 -0.064965121448 0 255 0
0.255670130253 -0.00386408623308 -0.0886881425977 0 255 0
-0.0157562810928 -0.00184750149492 0.12780097127 0 255 0
0.209457755089 -0.00371678732336 -0.0776620358229 0 255 0
0.196537300944 -0.00436098314822 -0.071541942656 0 255 0
0.156806960702 -0.00413970649242 -0.101008884609 0 255 0
-0.275183141232 -0.00324989273213 -0.0450652763247 0 255 0
0.167454153299 -0.0040893573314 -0.095516346395 0 255 0
0.248988926411 -0.00419072201476 -0.128552421927 0 255 0
-0.33038470149 -0.00222580018453 -0.0588335394859 0 255 0
0.201311692595 -0.0051890029572 -0.093315243721 0 255 0
0.2477222085 -0.004216987174 -0.128761321306 0 255 0
0.440820664167 -0.0033076335676 0.185369223356 0 255 0
0.198796674609 -0.00398701382801 -0.078342013061 0 255 0
0.200632378459 -0.00565487053245 -0.126408159733 0 255 0
-0.287259310484 -0.00289566721767 -0.0603140629828 0 255 0
0.208380579948 -0.00415659323335 -0.0686859712005 0 255 0
0.262649595737 -0.00345584447496 -0.093315333128 0 255 0
0.25276824832 -0.00441723549739 -0.121244259179 0 255 0
0.214645877481 -0.0048122308217 -0.0933153182268 0 255 0
0.433478742838 -0.00015423160221 0.197451040149 0 255 0
0.199345678091 -0.00506580481306 -0.0972346067429 0 255 0
0.160467743874 -0.00516306888312 -0.0763019993901 0 255 0
0.273608714342 -0.00366754480638 -0.0818836912513 0 255 0
0.207073822618 -0.00430147675797 -0.0663187727332 0 255 0
-0.0901374965906 -0.00925686117262 -0.356237232685 0 255 0
-0.289711803198 -0.00280057615601 -0.0639185383916 0 255 0
0.259325772524 -0.00482816156 -0.108171321452 0 255 0
0.2512614429 -0.004178264644 -0.127417609096 0 255 0
0.156811341643 -0.00429464690387 -0.0976088494062 0 255 0
-0.321107387543 -0.00379036786035 -0.0616670586169 0 255 0
0.462093532085 -0.00196608318947 0.340680986643 0 255 0
0.429341614246 -0.000405318191042 0.200393334031 0 255 0
0.26208627224 -0.0035232398659 -0.0921865850687 0 255 0
0.265876024961 -0.00331710209139 -0.0943585187197 0 255 0
0.158125624061 -0.00480051571503 -0.128589525819 0 255 0
0.20993065834 -0.00462371576577 -0.100370131433 0 255 0
-0.0534578934312 -0.00784883834422 -0.36438536644 0 255 0
0.503622472286 -0.0100812930614 0.115479916334 0 255 0
0.204362213612 -0.00428549293429 -0.0683492273092 0 255 0
0.169352918863 -0.00465734908357 -0.0818858519197 0 255 0
0.207186877728 -0.00475487206131 -0.0991942510009 0 255 0
-0.053462125361 -0.00769412098452 -0.367780417204 0 255 0
-0.0493228882551 -0.00953548308462 -0.367728114128 0 255 0
0.258328229189 -0.00427503697574 -0.120917476714 0 255 0
-0.105002306402 -0.0086085004732 -0.379663139582 0 255 0
0.502677619457 -0.0100220814347 0.113596230745 0 255 0
0.199943810701 -0.0044197938405 -0.0681419149041 0 255 0
0.460145175457 -0.00211004912853 0.342630565166 0 255 0
0.205364629626 -0.00346028688364 -0.0858221277595 0 255 0
0.173881024122 -0.0049924235791 -0.0717334151268 0 255 0
-0.104438267648 -0.00851514097303 -0.38136073947 0 255 0
-0.292047798634 -0.00299453199841 -0.0611130222678 0 255 0
-0.275185763836 -0.00315784197301 -0.0470852479339 0 255 0
0.209014877677 -0.00346879079007 -0.0833741351962 0 255 0
0.502283453941 -0.009979525581 0.112418934703 0 255 0
-0.0341902039945 -0.0099686589092 -0.348854511976 0 255 0
0.199032798409 -0.00586104998365 -0.122878372669 0 255 0
-0.019854484126 -0.00222854595631 0.133616909385 0 255 0
0.174536243081 -0.00485387304798 -0.0743654072285 0 255 0
0.171584874392 -0.00496265944093 -0.0738086253405 0 255 0
0.509052157402 -0.00996910780668 0.116384066641 0 255 0
0.207739785314 -0.00388137600385 -0.0751175433397 0 255 0
0.195391073823 -0.00401567714289 -0.12271039933 0 255 0
0.197809129953 -0.00582049507648 -0.124525725842 0 255 0
0.246544882655 -0.00425025355071 -0.128761321306 0 255 0
0.162480220199 -0.00408277986571 -0.0987421944737 0 255 0
-0.0176009759307 -0.00211348338053 0.132490158081 0 255 0
0.216672360897 -0.0047549768351 -0.0933151766658 0 255 0
0.46115642786 -0.00197122083046 0.340213060379 0 255 0
0.459233313799 -0.000191096434719 0.342876464128 0 255 0
0.207179307938 -0.00448696035892 -0.105073325336 0 255 0
0.283693820238 -0.00209544971585 0.104328520596 0 255 0
0.436563372612 0.00152164523024 0.205502822995 0 255 0
0.436004787683 0.00137774192262 0.208312049508 0 255 0
0.264902472496 -0.00431037507951 -0.116069540381 0 255 0
-0.288678437471 -0.00292491540313 -0.0605519637465 0 255 0
0.260054886341 -0.00364241469651 -0.0908320471644 0 255 0
-0.0512128733099 -0.00954584311694 -0.368671894073 0 255 0
0.262095630169 -0.00329275080003 -0.097234621644 0 255 0
0.209915518761 -0.00408789562061 -0.112128213048 0 255 0
0.164545178413 -0.00486177811399 -0.080382078886 0 255 0
0.203458353877 -0.00347693637013 -0.0866381004453 0 255 0
0.20219451189 -0.00373594067059 -0.081742040813 0 255 0
0.211833074689 -0.00527780828997 -0.0848494768143 0 255 0
-0.271834313869 -0.00244897045195 -0.0605519674718 0 255 0
0.442952543497 -0.00319343712181 0.184186086059 0 255 0
0.256034374237 -0.00417589396238 -0.124512508512 0 255 0
-0.340308189392 -0.00244453363121 -0.0601855926216 0 255 0
0.172063648701 -0.00327395577915 -0.0676525607705 0 255 0
0.201948568225 -0.00457517756149 -0.106379754841 0 255 0
0.500593066216 -0.0100397188216 0.112691484392 0 255 0
-0.0367892608047 -0.000592651776969 0.130142271519 0 255 0
-0.323816865683 -0.00380522035994 -0.0630200579762 0 255 0
-0.109119340777 -0.00716758519411 -0.370921254158 0 255 0
0.255899488926 -0.00394449708983 -0.0867829024792 0 255 0
-0.343914449215 -0.0026080950629 -0.0588335357606 0 255 0
0.169997438788 -0.00501784868538 -0.0735820159316 0 255 0
-0.0351238660514 -0.00826843176037 -0.343826204538 0 255 0
0.467095762491 -0.00376532459632 0.340344429016 0 255 0
0.24331857264 -0.00460971705616 -0.12287838012 0 255 0
0.161095753312 -0.00572950905189 -0.10637973994 0 255 0
0.199931547046 -0.00398595817387 -0.0776620358229 0 255 0
-0.343686252832 -0.00269414787181 -0.0568053126335 0 255 0
0.171565905213 -0.00429124943912 -0.0885421037674 0 255 0
0.442044556141 -0.00313036306761 0.182240530849 0 255 0
-0.0514044873416 -0.00131826743018 0.136997610331 0 255 0
0.197580859065 -0.004168425221 -0.0751175433397 0 255 0
0.437815219164 -0.00143521197606 0.185338318348 0 255 0
0.167472317815 -0.00473192706704 -0.0814157426357 0 255 0
0.25195735693 -0.00467615015805 -0.116069540381 0 255 0
-0.10453183949 -0.00843714550138 -0.340241968632 0 255 0
-0.0527737773955 -0.00075097422814 0.123710468411 0 255 0
0.446519523859 -0.00454904139042 0.173232853413 0 255 0
0.455224364996 -0.000176910951268 0.340081691742 0 255 0
0.240665897727 -0.00468466756865 -0.122878447175 0 255 0
0.261865198612 -0.0043539586477 -0.116995655 0 255 0
0.281667381525 -0.00215270998888 0.104328557849 0 255 0
0.25047942996 -0.00449681142345 -0.120917469263 0 255 0
-0.0351769216359 -0.00849020201713 -0.381883323193 0 255 0
0.194470524788 -0.00352000654675 -0.0912621617317 0 255 0
0.291794776917 -0.00168181967456 0.100278019905 0 255 0
0.249015241861 -0.00512156682089 -0.108125887811 0 255 0
-0.313097476959 -0.00378124020062 -0.0569046102464 0 255 0
0.257243037224 -0.00326104741544 -0.100936211646 0 255 0
0.439692735672 -0.0032855453901 0.184186086059 0 255 0
-0.319080621004 -0.00358912092634 -0.0648240223527 0 255 0
0.167539402843 -0.00478958152235 -0.0801100209355 0 255 0
0.46574473381 -0.00374200171791 0.338995993137 0 255 0
0.262421220541 -0.00323886610568 -0.0982144102454 0 255 0
0.20471046865 -0.00570062268525 -0.122878372669 0 255 0
0.43098962307 0.001553723705 0.201346218586 0 255 0
-0.322462588549 -0.00377929443493 -0.0627494752407 0 255 0
0.209024965763 -0.00382577371784 -0.0755404755473 0 255 0
0.208870768547 -0.00392658822238 -0.0734254866838 0 255 0
0.16041828692 -0.00593263795599 -0.10234554857 0 255 0
-0.101229898632 -0.00841588992625 -0.381549209356 0 255 0
0.214647322893 -0.00486366823316 -0.0921865701675 0 255 0
-0.0227671246976 -0.00215215561911 0.130137398839 0 255 0
0.1555993855 -0.00382621842436 -0.0657438263297 0 255 0
0.196632742882 -0.00454952940345 -0.110235564411 0 255 0
0.512790501118 -0.00846450962126 0.128596425056 0 255 0
0.209810301661 -0.0038571737241 -0.0743654146791 0 255 0
0.509755194187 -0.0101442635059 0.120660223067 0 255 0
0.461440324783 -0.00188080826774 0.338406503201 0 255 0
0.202989310026 -0.00367605406791 -0.0825627222657 0 255 0
0.171579033136 -0.00475607160479 -0.0783420056105 0 255 0
0.25114569068 -0.00491024181247 -0.111439570785 0 255 0
0.245001211762 -0.00410347897559 -0.0900490432978 0 255 0
0.240196332335 -0.00475158914924 -0.1217020154 0 255 0
-0.194052964449 0.00907227024436 -0.264983534813 0 255 0
0.246080130339 -0.00370059767738 -0.0982144027948 0 255 0
0.195848941803 -0.00410131644458 -0.0776620283723 0 255 0
0.211796730757 -0.0039918362163 -0.113068960607 0 255 0
-0.0121934432536 -0.00180652365088 0.129109844565 0 255 0
-0.320513159037 -0.00372421136126 -0.0627494752407 0 255 0
0.169310897589 -0.00482015963644 -0.0783420056105 0 255 0
0.281484097242 -0.000818304019049 0.117842979729 0 255 0
0.241057738662 -0.00503588328138 -0.11493472755 0 255 0
0.195484802127 -0.00411647185683 -0.120442248881 0 255 0
0.260315656662 -0.00511320400983 -0.101308040321 0 255 0
0.290104031563 -0.00165775476489 0.0987028554082 0 255 0
0.281938701868 -0.000296929763863 0.106692679226 0 255 0
0.199915796518 -0.00342817232013 -0.0899021327496 0 255 0
0.244319185615 -0.00408137356862 -0.0909562930465 0 255 0
0.279462367296 -0.00099850341212 0.12054156512 0 255 0
0.437243193388 0.00135636446066 0.209548041224 0 255 0
0.247707173228 -0.00340636167675 -0.103657953441 0 255 0
0.20207811892 -0.00584952905774 -0.121244244277 0 255 0
0.19583491981 -0.00360550708137 -0.088542111218 0 255 0
-0.00745656574145 -0.00172406854108 0.130236625671 0 255 0
0.447866201401 -0.00429519359022 0.168501183391 0 255 0
0.247879579663 -0.00515158381313 -0.108171321452 0 255 0
0.198892116547 -0.00412363791838 -0.118174098432 0 255 0
0.279630362988 -0.00184080714826 0.0962275564671 0 255 0
0.200958430767 -0.00376430805773 -0.0818858593702 0 255 0
0.259982615709 -0.00445007812232 -0.116054438055 0 255 0
0.165795043111 -0.00338316732086 -0.0691416710615 0 255 0
0.446270048618 -0.0046324506402 0.217794105411 0 255 0
0.265445142984 -0.00414647627622 -0.076440140605 0 255 0
0.173733249307 -0.00419775117189 -0.0892494022846 0 255 0
0.198165073991 -0.00495616253465 -0.100370131433 0 255 0
0.249993190169 -0.00392104964703 -0.0909562930465 0 255 0
0.198058366776 -0.0044035972096 -0.0696651935577 0 255 0
-0.194615796208 0.00909902527928 -0.265918910503 0 255 0
0.282722562551 -0.000363810831914 0.108644805849 0 255 0
-0.0908230319619 -0.00905945990235 -0.360990315676 0 255 0
0.200040057302 -0.004556695465 -0.107967413962 0 255 0
-0.290869534016 -0.00299767707475 -0.0603140629828 0 255 0
-0.0918060168624 -0.00777699844912 -0.3468323946 0 255 0
-0.273726552725 -0.00231335870922 -0.0646978244185 0 255 0
0.438349843025 -0.0013806198258 0.18447253108 0 255 0
-0.343677908182 -0.00331672863103 -0.0431490652263 0 255 0
0.509078323841 -0.0108962021768 0.136728301644 0 255 0
0.201077952981 -0.00438774749637 -0.0681419149041 0 255 0
0.159432187676 -0.00473380973563 -0.129242673516 0 255 0
-0.314657002687 -0.0038253068924 -0.0569046065211 0 255 0
0.289167076349 -0.00172699405812 0.0996405333281 0 255 0
0.254320532084 -0.00422371691093 -0.124525740743 0 255 0
0.511307418346 -0.00797054544091 0.331281244755 0 255 0
0.249012306333 -0.00501813972369 -0.110395498574 0 255 0
0.255893528461 -0.00373364100233 -0.0914099514484 0 255 0
-0.273727744818 -0.00226649665274 -0.0657260790467 0 255 0
0.427439749241 -0.000360137142707 0.198224365711 0 255 0
0.51014995575 -0.0102047026157 0.122230008245 0 255 0
0.247865080833 -0.0046365163289 -0.119473956525 0 255 0
-0.010852064006 -0.00135752069764 0.120095796883 0 255 0
0.276034414768 -0.00218358985148 0.101515725255 0 255 0
-0.272101432085 -0.00228225020692 -0.0643730759621 0 255 0
0.202439397573 -0.00576479360461 -0.122878372669 0 255 0
0.510809838772 -0.00940923485905 0.10519695282 0 255 0
0.244316339493 -0.00343892141245 -0.0621579028666 0 255 0
0.291420519352 0.000802836555522 0.131339997053 0 255 0
0.290936261415 -0.00359615916386 0.0988340973854 0 255 0
-0.340105950832 -0.00321580306627 -0.0431489981711 0 255 0
-0.194612458348 0.00897628441453 -0.26322555542 0 255 0
0.507336854935 -0.0111063485965 0.0973702222109 0 255 0
0.505564987659 -0.0170947816223 -0.415725529194 0 255 0
0.291140943766 0.000743687327486 0.13246370852 0 255 0
-0.0251058135182 -0.00219692499377 0.129670098424 0 255 0
0.44560867548 -0.00425622146577 0.166247993708 0 255 0
0.248534888029 -0.00517778098583 -0.107190899551 0 255 0
0.51568454504 -0.00791397038847 0.118318013847 0 255 0
0.442693889141 -0.00287669221871 0.219967633486 0 255 0
0.200026258826 -0.0040709017776 -0.118627756834 0 255 0
0.247724696994 -0.00402652472258 -0.0900490432978 0 255 0
0.174539074302 -0.00429473491386 -0.0866236388683 0 255 0
0.505332231522 -0.0189890842885 -0.417221099138 0 255 0
0.24091771245 -0.00428092805669 -0.0886881351471 0 255 0
0.261699348688 -0.00316094653681 -0.100370146334 0 255 0
-0.0636403039098 -0.00860136002302 -0.354193717241 0 255 0
0.197696104646 -0.00503376219422 -0.098959185183 0 255 0
0.515250086784 -0.00798090081662 0.119516402483 0 255 0
0.443172037601 -0.00294374045916 0.17884708941 0 255 0
-0.0933394730091 -0.00912483874708 -0.361115843058 0 255 0
-0.0750131979585 -0.00907827541232 -0.350782692432 0 255 0
-0.0966417640448 -0.00927456934005 -0.359878718853 0 255 0
0.215326741338 -0.00490624690428 -0.0908320322633 0 255 0
0.246577113867 -0.00360380182974 -0.100028894842 0 255 0
0.249226793647 -0.00456698518246 -0.120154887438 0 255 0
0.447016656399 -0.00417362246662 0.165309205651 0 255 0
0.508513748646 -0.010250935331 0.122230008245 0 255 0
0.505681335926 -0.0171643998474 -0.414126992226 0 255 0
-0.0874871313572 -0.00759278144687 -0.348195850849 0 255 0
0.275975614786 -0.00501882005483 -0.136562272906 0 255 0
0.215311035514 -0.00435070600361 -0.103022865951 0 255 0
0.522461593151 0.0131464507431 0.132490023971 0 255 0
0.434953510761 -0.00137347681448 0.182211697102 0 255 0
0.245016992092 -0.00466162525117 -0.0778010413051 0 255 0
0.448173224926 -0.00415249541402 0.208449453115 0 255 0
0.510294854641 -0.0080453697592 0.332294553518 0 255 0
0.156378120184 -0.00503052212298 -0.0817420333624 0 255 0
0.50707089901 -0.0169871374965 -0.417152792215 0 255 0
0.522822082043 0.0110980132595 0.134741649032 0 255 0
0.440031409264 0.00165474275127 0.204733073711 0 255 0
0.291261017323 -0.0035424134694 0.0978568419814 0 255 0
-0.043515805155 -0.00114672037307 0.138123646379 0 255 0
-0.094541862607 -0.0076055591926 -0.352286458015 0 255 0
0.252275943756 -0.00432204222307 -0.0807496085763 0 255 0
0.445064902306 -0.00279543921351 0.219655007124 0 255 0
0.523398578167 -0.00396391004324 0.122259825468 0 255 0
0.279938310385 -0.00506149139255 -0.133171528578 0 255 0
0.437221616507 -0.0015156082809 0.186733365059 0 255 0
0.444126188755 -0.00280058337376 0.219186216593 0 255 0
0.503442287445 -0.0190294645727 -0.417506635189 0 255 0
-0.0590961240232 -0.00823442544788 -0.359423965216 0 255 0
0.289129644632 -0.00347882555798 0.0951420888305 0 255 0
-0.316814035177 -0.00388502515852 -0.0569315850735 0 255 0
0.448107302189 -0.00609955610707 0.165327131748 0 255 0
0.25907304883 -0.003716211766 -0.0898222178221 0 255 0
0.240548059344 -0.00470596924424 -0.079597465694 0 255 0
0.471034824848 -0.00576426647604 0.343727916479 0 255 0
0.518822193146 -0.00893884990364 -0.371909022331 0 255 0
0.240926399827 -0.00459101190791 -0.0818836838007 0 255 0
0.447162926197 -0.00607376126572 0.164176434278 0 255 0
-0.0849857926369 -0.00752210058272 -0.348195910454 0 255 0
0.446576416492 -0.00315707572736 0.185633987188 0 255 0
-0.0943780243397 -0.00879576522857 -0.368974745274 0 255 0
-0.0943677723408 -0.00915846135467 -0.361015707254 0 255 0
0.262256115675 -0.0048494534567 -0.105888962746 0 255 0
0.289152294397 -0.00158537039533 0.0965260565281 0 255 0
0.158153384924 -0.00578285381198 -0.107033021748 0 255 0
0.440060198307 -0.00431773904711 0.164159297943 0 255 0
-0.0693245530128 -0.00891753844917 -0.350782692432 0 255 0
0.528346478939 -0.0018686207477 0.122269719839 0 255 0
-0.0989172235131 -0.00933886505663 -0.359878718853 0 255 0
0.295630991459 0.00229285680689 0.14416448772 0 255 0
0.444328963757 -0.00379836396314 0.198302835226 0 255 0
0.516294777393 -0.00717523414642 0.145385041833 0 255 0
0.283918142319 0.00223931367509 0.138081774116 0 255 0
0.43966832757 -0.0024245060049 0.165291324258 0 255 0
0.438852220774 -0.00240547256544 0.164368361235 0 255 0
0.51470553875 -0.00719945179299 0.144931420684 0 255 0
0.43156594038 -0.00167541496921 0.186733365059 0 255 0
0.251803010702 -0.00366302579641 -0.0954925939441 0 255 0
0.205125808716 -0.00465048663318 -0.0598730817437 0 255 0
0.230975717306 -0.0062335007824 -0.137808352709 0 255 0
0.296233475208 0.000282576598693 0.145729407668 0 255 0
-0.224807575345 0.0101899206638 -0.265657007694 0 255 0
0.28082036972 -0.00458516925573 -0.100182242692 0 255 0
0.518805861473 -0.00718186004087 0.104199171066 0 255 0
0.455737143755 -0.00295357522555 0.229734405875 0 255 0
0.429017692804 -0.000150683743414 0.194609388709 0 255 0
-0.227613061666 0.010110645555 -0.26565694809 0 255 0
0.520051538944 -0.00886805914342 -0.372699558735 0 255 0
0.443240523338 -0.00454792845994 0.171176940203 0 255 0
0.519430160522 0.0112592782825 0.129104197025 0 255 0
0.279530227184 0.00020892014436 0.136995866895 0 255 0
-0.0989201515913 -0.00923523772508 -0.362152725458 0 255 0
-0.222784087062 0.0101243406534 -0.262965410948 0 255 0
0.262735635042 -0.00471956143156 -0.0655530393124 0 255 0
0.522322535515 0.0115713439882 0.124053649604 0 255 0
0.27979066968 -0.00492064654827 -0.0934643372893 0 255 0
0.524302124977 0.0136254308745 0.123127922416 0 255 0
0.518151402473 -0.00885685905814 -0.374122411013 0 255 0
0.280730605125 0.00220081093721 0.13695114851 0 255 0
0.483572155237 -0.00728954700753 0.342052698135 0 255 0
-0.295382380486 -0.00312519143336 -0.0603140629828 0 255 0
0.279851198196 -0.00542215304449 -0.125317439437 0 255 0
-0.132113486528 0.0181672442704 -0.168708771467 0 255 0
0.482666671276 -0.00729451049119 0.3416005373 0 255 0
0.531085133553 0.00927479378879 0.136951074004 0 255 0
-0.0977318063378 -0.00746768061072 -0.357286006212 0 255 0
0.175900608301 -0.00606750417501 -0.132683187723 0 255 0
0.526371181011 -0.00614499347284 0.171925187111 0 255 0
0.440035402775 -0.00344087532721 0.144917324185 0 255 0
-0.131697550416 0.020154139027 -0.169129982591 0 255 0
0.455163061619 2.42250348492e-06 0.336111545563 0 255 0
0.446866035461 -0.00448678480461 0.172082453966 0 255 0
0.529746294022 0.0112373074517 0.135977327824 0 255 0
0.177076920867 -0.00599849177524 -0.133467584848 0 255 0
-0.130022317171 0.0202524252236 -0.170247152448 0 255 0
-0.0243774615228 -0.0018938559806 0.123476080596 0 255 0
0.00020266174397 0.0142961116508 -0.173398792744 0 255 0
0.528045415878 -0.00420244038105 0.173255845904 0 255 0
-0.129349917173 0.0202102866024 -0.168906584382 0 255 0
-0.0864183157682 -0.00841529201716 -0.37238574028 0 255 0
0.00117001100443 0.0124457869679 -0.175115123391 0 255 0
0.514679729939 -0.00824227835983 -0.389748960733 0 255 0
0.527705252171 -0.00415035663173 0.171903088689 0 255 0
-0.315696001053 -0.00349348527379 -0.0648240223527 0 255 0
0.520429253578 -0.00879249256104 -0.374122470617 0 255 0
0.279126882553 -0.00554619543254 -0.123046353459 0 255 0
0.518871903419 -0.0065808291547 0.348383039236 0 255 0
0.178019270301 -0.00599332619458 -0.132997021079 0 255 0
0.510830283165 -0.0101336920634 0.121094502509 0 255 0
0.279859960079 -0.00573263457045 -0.118504203856 0 255 0
0.522822499275 -0.0123540833592 -0.337433159351 0 255 0
0.520427525043 -0.00873024761677 -0.375488370657 0 255 0
0.172812089324 -0.00558465346694 -0.102297030389 0 255 0
0.260518610477 -0.00539874099195 -0.13780836761 0 255 0
0.279217153788 -0.00415432406589 -0.110622480512 0 255 0
-0.029994841665 -0.000764673866797 0.138123631477 0 255 0
-0.312311351299 -0.00339784938842 -0.0648240223527 0 255 0
0.454549491405 -0.00112257665023 0.317511856556 0 255 0
0.240901648998 -0.00371244549751 -0.101162970066 0 255 0
0.280580878258 -0.00415305327624 -0.109805457294 0 255 0
-0.0988556370139 -0.00796583015472 -0.347059577703 0 255 0
-0.0577674731612 -0.00951556861401 -0.373396635056 0 255 0
-0.0830051228404 -0.00831884983927 -0.37238574028 0 255 0
0.455766022205 -0.00303915818222 0.317402690649 0 255 0
-0.0254936534911 -0.000432071014075 0.133619531989 0 255 0
0.156381621957 -0.00515447324142 -0.0790220499039 0 255 0
0.280814528465 -0.00437831459567 -0.104721471667 0 255 0
-0.0977956056595 -0.00873676687479 -0.37238574028 0 255 0
-0.015347128734 -0.00035079009831 0.138123631477 0 255 0
-0.107963316143 -0.00780860241503 -0.356149733067 0 255 0
