ply
format ascii 1.0
comment https://github.com/EricCJoyce
element vertex 874
property float x
property float y
property float z
property uchar red
property uchar green
property uchar blue
end_header
0.127741798759 0.106057271361 0.239795178175 0 255 0
0.127741530538 0.107107520103 0.237797290087 0 255 0
0.124707609415 0.107638888061 0.238059133291 0 255 0
0.126585662365 0.105509735644 0.23793387413 0 255 0
0.07209636271 0.108258962631 0.212139263749 0 255 0
0.0762508958578 0.10817630589 0.213511928916 0 255 0
0.124420449138 0.107363887131 0.210883930326 0 255 0
0.0696065053344 0.108188703656 0.212650954723 0 255 0
0.0700966194272 0.107283830643 0.21100243926 0 255 0
0.0670126527548 0.106762871146 0.211491242051 0 255 0
0.0643419399858 0.108311802149 0.209715396166 0 255 0
0.120588809252 0.106563799083 0.215070798993 0 255 0
-0.24785284698 -0.104186080396 -0.340543717146 0 255 0
0.0657961145043 0.106890819967 0.209995880723 0 255 0
0.0700715631247 0.107861950994 0.220966354012 0 255 0
0.127417013049 0.105682812631 0.238662287593 0 255 0
0.127477377653 0.106298677623 0.209218159318 0 255 0
0.0853985026479 0.108398258686 0.238012164831 0 255 0
-0.256272763014 -0.104552045465 -0.342183560133 0 255 0
0.0735722705722 0.106990858912 0.208347991109 0 255 0
0.128852307796 0.10653655231 0.236498534679 0 255 0
-0.00483278930187 0.109305426478 0.218081504107 0 255 0
-0.228223472834 -0.105905406177 -0.350093483925 0 255 0
-0.00436965934932 0.109162479639 0.221773743629 0 255 0
0.236538633704 -0.109364569187 0.283011347055 0 255 0
-0.247876986861 -0.104145087302 -0.3421484828 0 255 0
0.132113680243 0.105964437127 0.208184704185 0 255 0
-0.226077869534 -0.106896303594 -0.350481539965 0 255 0
-0.0413193628192 0.109006613493 -0.12107617408 0 255 0
0.0704161673784 0.108862154186 0.221813172102 0 255 0
0.130890160799 0.105576507747 0.241740241647 0 255 0
0.0867204517126 0.107339799404 0.237597167492 0 255 0
-0.00629386631772 0.109115816653 0.222542971373 0 255 0
-0.229614526033 -0.1067244187 -0.350093483925 0 255 0
-0.0461608096957 0.109144739807 -0.123792164028 0 255 0
-0.259099543095 -0.103906996548 -0.343400269747 0 255 0
-0.264636933804 -0.106323592365 -0.104277156293 0 255 0
0.0857952535152 0.107405543327 0.235749319196 0 255 0
-0.264742791653 -0.105549067259 -0.0626908987761 0 255 0
-0.234708428383 -0.10425144434 0.281782656908 0 255 0
-0.00370915420353 0.108681559563 0.220730856061 0 255 0
-0.262984454632 -0.105004437268 -0.180253088474 0 255 0
0.233603060246 -0.112390488386 0.28736436367 0 255 0
-0.260539650917 -0.103460595012 0.278092414141 0 255 0
0.0668950453401 0.107801415026 0.221821129322 0 255 0
-0.252168476582 -0.104196816683 -0.348178774118 0 255 0
0.0538197048008 0.105895347893 -0.126274764538 0 255 0
-0.118456706405 0.108576096594 0.212543159723 0 255 0
0.0677581131458 0.10816437006 0.220869913697 0 255 0
-0.118414379656 0.108507558703 0.21136033535 0 255 0
-0.266388565302 -0.104699753225 0.0162778999656 0 255 0
-0.26344794035 -0.106382615864 -0.214035883546 0 255 0
0.236553639174 -0.111844323575 0.287993431091 0 255 0
0.065736040473 0.108737312257 0.221205681562 0 255 0
-0.263032466173 -0.104922890663 -0.183445036411 0 255 0
0.0782770514488 0.109042450786 0.229231402278 0 255 0
-0.265536278486 -0.104796051979 -0.164071440697 0 255 0
-0.264814674854 -0.105426974595 -0.0674700438976 0 255 0
-0.265612453222 -0.105261437595 -0.217758581042 0 255 0
-0.256320953369 -0.104470200837 -0.345387220383 0 255 0
-0.264912724495 -0.10585514456 -0.122614070773 0 255 0
-0.263441264629 -0.104618370533 -0.0674700438976 0 255 0
-0.264703392982 -0.104842104018 -0.346212953329 0 255 0
-0.266018420458 -0.105926074088 -0.00765229901299 0 255 0
-0.264271736145 -0.104778490961 -0.0770283490419 0 255 0
-0.267145484686 -0.104382812977 0.0600223876536 0 255 0
-0.263143777847 -0.105324245989 -0.239594966173 0 255 0
-0.237379074097 -0.106759928167 -0.350122690201 0 255 0
-0.264952301979 -0.106382660568 -0.173869177699 0 255 0
-0.0479367785156 0.110333688557 -0.122835412621 0 255 0
-0.212808728218 -0.105166912079 0.287721216679 0 255 0
-0.229702994227 -0.105962321162 0.285355210304 0 255 0
-0.119658730924 0.108764372766 0.211278632283 0 255 0
-0.263948470354 -0.104940608144 -0.198606833816 0 255 0
0.26121711731 -0.112552158535 -0.0562553144991 0 255 0
-0.250298529863 -0.097403652966 0.277299553156 0 255 0
0.120455749333 0.106740653515 0.237853571773 0 255 0
0.244955331087 -0.108246192336 -0.346084445715 0 255 0
0.228020787239 -0.111372686923 0.285126656294 0 255 0
-0.118348196149 0.109435975552 0.2401009202 0 255 0
-0.265500307083 -0.104857154191 -0.161679670215 0 255 0
0.129014357924 0.105657353997 0.207287460566 0 255 0
0.23579005897 -0.11123804003 0.284143269062 0 255 0
-0.263672709465 -0.105795919895 -0.0372020974755 0 255 0
-0.265308409929 -0.105562798679 -0.00606071297079 0 255 0
-0.263808339834 -0.105770476162 -0.237997531891 0 255 0
-0.237502038479 -0.103677138686 0.283189803362 0 255 0
-0.263286262751 -0.105473510921 -0.105871669948 0 255 0
-0.11752884835 0.108885370195 0.241689473391 0 255 0
-0.120841540396 0.107667483389 0.210670858622 0 255 0
-0.263960242271 -0.104714274406 -0.00765229854733 0 255 0
-0.0614765509963 0.107674248517 0.211776524782 0 255 0
0.0765458419919 0.107695624232 0.226509958506 0 255 0
0.237796485424 -0.110268138349 0.287242680788 0 255 0
-0.266963750124 -0.102527581155 0.0751168727875 0 255 0
-0.265296399593 -0.105411276221 -0.33981731534 0 255 0
-0.120127424598 0.10974188894 0.240754395723 0 255 0
0.0792297944427 0.108002953231 0.229748398066 0 255 0
-0.0615246742964 0.108938679099 0.212460055947 0 255 0
-0.237897709012 -0.103948503733 0.28430595994 0 255 0
0.0564684532583 0.105590172112 -0.128369003534 0 255 0
0.2619356215 -0.111982725561 0.270996302366 0 255 0
-0.265492409468 -0.105465292931 -0.209778681397 0 255 0
-0.266807168722 -0.103391140699 0.0369868576527 0 255 0
-0.25219258666 -0.104155860841 -0.349782049656 0 255 0
0.0550660677254 0.106229364872 -0.124917276204 0 255 0
0.115440875292 0.105533994734 -0.170776337385 0 255 0
-0.263191848993 -0.105242624879 -0.242789849639 0 255 0
-0.263624787331 -0.105877310038 -0.0340159982443 0 255 0
-0.258265256882 -0.103746138513 -0.33379805088 0 255 0
-0.24087870121 -0.105802357197 0.287176072598 0 255 0
-0.263321459293 -0.10482185334 -0.0595047958195 0 255 0
0.076592721045 0.108185887337 0.225303843617 0 255 0
0.232199087739 -0.109931267798 -0.347690343857 0 255 0
0.107711024582 0.106667488813 0.208803445101 0 255 0
0.0758090540767 0.108370505273 0.20938231051 0 255 0
-0.266528457403 -0.105279147625 -0.232920378447 0 255 0
-0.258428543806 -0.105628423393 -0.347789973021 0 255 0
-0.262926518917 -0.106084525585 -0.0819539576769 0 255 0
-0.266639888287 -0.103675238788 0.0481074601412 0 255 0
-0.261066019535 -0.104128398001 -0.238796249032 0 255 0
0.241285935044 -0.107676126063 0.285552322865 0 255 0
-0.263432115316 -0.104834534228 -0.258764266968 0 255 0
-0.263900458813 -0.105022147298 -0.195414885879 0 255 0
0.244739457965 -0.108298808336 -0.342202693224 0 255 0
0.113265618682 0.104847416282 -0.170520350337 0 255 0
-0.265312373638 -0.10577108711 -0.197808846831 0 255 0
0.232383191586 -0.106937304139 0.281408578157 0 255 0
0.245621919632 -0.108711451292 -0.344143599272 0 255 0
-0.00649552978575 0.10740955919 0.216251522303 0 255 0
-0.263490110636 -0.10512726754 -0.119425043464 0 255 0
0.0663269236684 0.107077285647 0.213137611747 0 255 0
-0.00678383279592 0.107994802296 0.214821860194 0 255 0
-0.00709750410169 0.107895374298 0.220971748233 0 255 0
-0.263190329075 -0.105636447668 -0.0994936153293 0 255 0
-0.267264962196 -0.104179888964 0.0520791001618 0 255 0
-0.239145979285 -0.0333333872259 -0.339636206627 0 255 0
0.0824192389846 0.108917064965 0.237854972482 0 255 0
0.113193616271 0.104969717562 -0.175307795405 0 255 0
-0.26162186265 -0.103770375252 -0.32462772727 0 255 0
0.0692598000169 0.104988977313 -0.176172092557 0 255 0
-0.120355501771 0.108302585781 0.240314751863 0 255 0
-0.120914325118 0.109309449792 0.239857256413 0 255 0
-0.265511900187 -0.105217196047 -0.0195891913027 0 255 0
0.0699860826135 0.107427097857 0.209213793278 0 255 0
-0.264828801155 -0.105997718871 -0.117033265531 0 255 0
-0.0075636068359 0.108837507665 0.216143086553 0 255 0
-0.249972999096 -0.104361765087 0.287393629551 0 255 0
-0.0615151189268 0.109009310603 0.210570678115 0 255 0
-0.23951266706 -0.105761997402 -0.349733889103 0 255 0
-0.255510002375 -0.104268275201 -0.337378054857 0 255 0
0.0810938030481 0.108428522944 0.229372143745 0 255 0
-0.00668758386746 0.109330236912 0.217067688704 0 255 0
0.0833228379488 0.106549598277 0.21052865684 0 255 0
0.0697038397193 0.106560468674 -0.174904316664 0 255 0
0.0758245959878 0.106376633048 0.208954244852 0 255 0
0.11107378453 0.105961695313 -0.175201267004 0 255 0
-0.266687184572 -0.10403072834 -0.337837696075 0 255 0
-0.258919000626 -0.104213625193 -0.331397473812 0 255 0
-0.261780411005 -0.105475984514 -0.145939558744 0 255 0
0.078039072454 0.108331315219 0.210836604238 0 255 0
-0.229819253087 -0.106080271304 0.286794245243 0 255 0
-0.266663789749 -0.103634648025 0.0465188026428 0 255 0
-0.263733774424 -0.106285527349 -0.0899265259504 0 255 0
0.215215846896 -0.113206058741 0.287423014641 0 255 0
0.261075973511 -0.112643837929 0.0970902219415 0 255 0
-0.265348225832 -0.106687530875 -0.105871669948 0 255 0
0.261179357767 -0.11169795692 0.274187207222 0 255 0
-0.263166338205 -0.105677179992 -0.0978991016746 0 255 0
0.240895211697 -0.102708265185 0.279938489199 0 255 0
0.244309425354 -0.104787155986 0.283132314682 0 255 0
0.260635584593 -0.111356049776 -0.0256346352398 0 255 0
-0.266436398029 -0.104618512094 0.0130976559594 0 255 0
0.120765849948 0.106492951512 0.239450111985 0 255 0
-0.261530160904 -0.106489986181 -0.17809343338 0 255 0
-0.266455262899 -0.10637935251 -0.133775666356 0 255 0
-0.0446150973439 0.108679026365 -0.122214876115 0 255 0
-0.263732612133 -0.105694174767 -0.0411847233772 0 255 0
0.0558947585523 0.105745315552 -0.124597616494 0 255 0
0.11096393317 0.105767853558 -0.169519424438 0 255 0
-0.265373915434 -0.10468634963 -0.296304196119 0 255 0
-0.233683258295 -0.0323173627257 -0.341590970755 0 255 0
-0.262312322855 -0.106146045029 -0.135565698147 0 255 0
0.109816946089 0.106362134218 -0.175405561924 0 255 0
-0.262566715479 -0.106103815138 -0.00932372361422 0 255 0
-0.00777339423075 0.108754843473 0.214955627918 0 255 0
-0.265141844749 -0.103505559266 -0.326655596495 0 255 0
-0.265261739492 -0.106238253415 -0.0515395477414 0 255 0
0.0688154250383 0.105137296021 -0.17387534678 0 255 0
-0.262215226889 -0.105720587075 -0.0803594440222 0 255 0
0.246261969209 -0.10482057184 -0.338823586702 0 255 0
-0.264479219913 -0.105996735394 -0.0451673492789 0 255 0
-0.264737188816 -0.105767801404 -0.253971964121 0 255 0
-0.236347526312 -0.105243951082 0.282580643892 0 255 0
-0.0589080452919 0.108426235616 0.212643146515 0 255 0
-0.263744443655 -0.10528716445 -0.185041025281 0 255 0
-0.0441681332886 0.109481118619 -0.165378540754 0 255 0
0.261320203543 -0.111617222428 0.121088311076 0 255 0
-0.238496035337 -0.0328969731927 -0.341198503971 0 255 0
-0.266316831112 -0.104821622372 0.021048264578 0 255 0
0.248366639018 -0.103820838034 -0.337621450424 0 255 0
-0.044133387506 0.108058840036 -0.1643576473 0 255 0
-0.0352458097041 0.108183287084 -0.129330202937 0 255 0
0.260884970427 -0.111193910241 0.216860249639 0 255 0
-0.263696670532 -0.105755224824 -0.0387951470912 0 255 0
0.0664277002215 0.108142003417 0.21315728128 0 255 0
-0.266475588083 -0.1057472229 -0.0865866467357 0 255 0
-0.263131916523 -0.106364533305 -0.0773298740387 0 255 0
-0.014178504236 0.10755186528 0.21793499589 0 255 0
-0.0685862898827 0.109296567738 0.213025867939 0 255 0
-0.264733374119 -0.104199312627 -0.299499064684 0 255 0
-0.254843622446 -0.103820823133 -0.338979870081 0 255 0
-0.268166452646 -0.10301399976 0.134583950043 0 255 0
-0.261140882969 -0.104587309062 -0.292649567127 0 255 0
-0.261855483055 -0.106331601739 -0.056441731751 0 255 0
0.235747843981 -0.109713852406 -0.347288876772 0 255 0
-0.119025282562 0.109756663442 0.241174355149 0 255 0
0.242285594344 -0.103496238589 0.279938489199 0 255 0
-0.000565631547943 0.108820423484 0.218010991812 0 255 0
-0.26309248805 -0.10482095927 -0.187434986234 0 255 0
-0.256176412106 -0.10471573472 -0.335776209831 0 255 0
-0.23461343348 -0.0282227732241 -0.344708174467 0 255 0
-0.265090197325 -0.104958958924 -0.0857901200652 0 255 0
-0.263067871332 -0.103878192604 -0.280329763889 0 255 0
-0.262612402439 -0.105636395514 -0.155515417457 0 255 0
-0.267312437296 -0.10552110523 -0.239304289222 0 255 0
-0.26428887248 -0.10495428741 -0.269946366549 0 255 0
-0.262830287218 -0.105656147003 -0.0268472731113 0 255 0
-0.233899712563 -0.103736869991 0.280665457249 0 255 0
-0.254822611809 -0.0863156989217 0.273038983345 0 255 0
0.0652216672897 0.108369484544 0.223094522953 0 255 0
-0.260804206133 -0.105159163475 -0.27026489377 0 255 0
-0.266379743814 -0.105910010636 -0.0802144482732 0 255 0
0.246996030211 -0.105163812637 -0.340438097715 0 255 0
-0.265444397926 -0.105546839535 -0.20658673346 0 255 0
0.0712007582188 0.107779465616 0.210749775171 0 255 0
-0.0600948520005 0.10972584039 0.214049264789 0 255 0
-0.00791658181697 0.108517765999 0.21746198833 0 255 0
-0.267097502947 -0.101702734828 0.114762328565 0 255 0
-0.261393398046 -0.10415841639 -0.309438109398 0 255 0
-0.267609328032 -0.103359781206 0.220081567764 0 255 0
-0.0588685311377 0.108495958149 0.210599496961 0 255 0
0.223098874092 -0.110801436007 0.284493178129 0 255 0
0.261735111475 -0.112336523831 0.281366765499 0 255 0
-0.261116832495 -0.104628153145 -0.291050672531 0 255 0
-0.249951556325 -0.103200092912 -0.339210659266 0 255 0
-0.242537662387 -0.10443213582 0.284866273403 0 255 0
-0.0417427010834 0.108992755413 -0.165291473269 0 255 0
0.070133395493 0.106764502823 -0.173483848572 0 255 0
0.0796832665801 0.108240447938 0.2106988132 0 255 0
-0.25518488884 -0.103872954845 -0.343304872513 0 255 0
0.0787368714809 0.107694715261 0.210365176201 0 255 0
-0.267816841602 -0.102044411004 0.11238373816 0 255 0
-0.00768521055579 0.10829564184 0.219480887055 0 255 0
-0.265276372433 -0.105832241476 -0.195414885879 0 255 0
-0.266446918249 -0.104438826442 -0.321863263845 0 255 0
-0.253528237343 -0.10401686281 0.282434433699 0 255 0
0.229169696569 -0.109783887863 0.285276949406 0 255 0
-0.265445232391 -0.103911466897 0.273154437542 0 255 0
-0.265846639872 -0.104052461684 0.0067371702753 0 255 0
0.262111246586 -0.111568614841 -0.139164417982 0 255 0
-0.262471020222 -0.104870483279 0.286021053791 0 255 0
-0.259957015514 -0.104659609497 -0.336198657751 0 255 0
-0.0355766303837 0.109188735485 -0.129569008946 0 255 0
0.254717648029 -0.107347428799 -0.339234471321 0 255 0
-0.261561393738 -0.106436930597 -0.18017013371 0 255 0
0.258244246244 -0.109309703112 -0.34004098177 0 255 0
-0.267948001623 -0.101821608841 0.103662230074 0 255 0
0.127512127161 0.107049971819 0.207008883357 0 255 0
-0.251991689205 -0.10418099165 -0.345613509417 0 255 0
0.109365440905 0.104709222913 -0.175779402256 0 255 0
-0.266326785088 -0.104642868042 -0.313876062632 0 255 0
-0.266032844782 -0.104475431144 0.279491484165 0 255 0
-0.264828234911 -0.103619679809 0.0774976238608 0 255 0
-0.0467775352299 0.108480244875 -0.163265615702 0 255 0
0.246523112059 -0.109090954065 -0.347054898739 0 255 0
0.11144849658 0.106376335025 0.209652677178 0 255 0
-0.261604636908 -0.106363475323 -0.183045506477 0 255 0
0.0907618552446 0.107992134988 0.209783926606 0 255 0
-0.00298208254389 0.109165407717 0.219109684229 0 255 0
-0.260780155659 -0.105200007558 -0.268665969372 0 255 0
-0.261528342962 -0.105904087424 -0.12918177247 0 255 0
-0.258877009153 -0.104995802045 0.285261243582 0 255 0
-0.259172558784 -0.104098640382 -0.339079290628 0 255 0
0.261351138353 -0.111562646925 0.119488462806 0 255 0
-0.00835689622909 0.10916878283 0.220777273178 0 255 0
0.11409329623 0.106119990349 -0.168417006731 0 255 0
-0.0449629798532 0.108507752419 -0.163886517286 0 255 0
0.0666821599007 0.107249893248 0.214722320437 0 255 0
-0.237949296832 -0.0302512627095 -0.342835187912 0 255 0
-0.0367142148316 0.10932136327 -0.133143663406 0 255 0
-0.264345288277 -0.106190279126 -0.103161022067 0 255 0
-0.261298090219 -0.105309188366 -0.208444833755 0 255 0
0.261271893978 -0.111534669995 0.26940086484 0 255 0
-0.235284164548 -0.10555421561 -0.349317371845 0 255 0
-0.267557859421 -0.101885177195 0.17809855938 0 255 0
-0.266695082188 -0.105972006917 -0.149720802903 0 255 0
-0.265387743711 -0.10501383245 -0.221110150218 0 255 0
-0.259100347757 -0.104221299291 -0.334278166294 0 255 0
-0.260708004236 -0.105322547257 -0.263869255781 0 255 0
0.239291518927 -0.109493546188 -0.346887409687 0 255 0
-0.120106711984 0.107359550893 0.208263173699 0 255 0
-0.00869251135737 0.108181782067 0.215883359313 0 255 0
-0.263722389936 -0.104524940252 0.0568259991705 0 255 0
0.115233458579 0.105782307684 -0.173677504063 0 255 0
0.215991690755 -0.111318647861 0.285639166832 0 255 0
-0.258373588324 -0.103562161326 -0.340999752283 0 255 0
0.105303324759 0.107439510524 0.211067870259 0 255 0
-0.00425120070577 0.108269110322 0.223443105817 0 255 0
-0.265459746122 -0.104891516268 -0.225898072124 0 255 0
0.113767072558 0.106413148344 -0.175858438015 0 255 0
-0.0463128574193 0.108576580882 -0.16559073329 0 255 0
-0.264009386301 -0.104037471116 0.0377445407212 0 255 0
-0.0484334081411 0.109229423106 -0.16514763236 0 255 0
0.097497113049 0.106596544385 0.209394127131 0 255 0
-0.267164707184 -0.102552980185 0.204238921404 0 255 0
0.237159892917 -0.110514104366 -0.347288876772 0 255 0
-0.00344157102518 0.108184486628 0.218435049057 0 255 0
0.261985808611 -0.112229727209 -0.0232282821089 0 255 0
0.260727494955 -0.110748171806 -0.139967992902 0 255 0
-0.230604693294 -0.10178039223 0.28018668294 0 255 0
-0.264979153872 -0.102173909545 0.164712786674 0 255 0
-0.262771457434 -0.105164200068 0.0257710032165 0 255 0
0.241420581937 -0.108471550047 -0.3464859128 0 255 0
-0.265372395515 -0.105669155717 -0.201798796654 0 255 0
0.0827894806862 0.107869155705 0.23780451715 0 255 0
0.119553491473 0.107349745929 0.23568469286 0 255 0
-0.2667362988 -0.106499634683 -0.201000809669 0 255 0
-0.26807397604 -0.102570563555 0.189188405871 0 255 0
-0.26465895772 -0.104501962662 0.04012972489 0 255 0
-0.262914150953 -0.105513706803 -0.0324229486287 0 255 0
0.0665482282639 0.106029264629 -0.17612798512 0 255 0
0.108907654881 0.107271276414 0.21173197031 0 255 0
0.260028660297 -0.111029461026 0.174133002758 0 255 0
-0.266940355301 -0.106153070927 -0.214566618204 0 255 0
0.094406992197 0.107899300754 0.208954706788 0 255 0
0.260121047497 -0.110187165439 -0.144789487123 0 255 0
-0.228325977921 -0.0290824677795 -0.343936622143 0 255 0
-0.069265589118 0.108948998153 0.211503103375 0 255 0
-0.266291171312 -0.102474682033 0.216913044453 0 255 0
-0.0370138809085 0.109195888042 -0.129565119743 0 255 0
0.256855428219 -0.108486272395 -0.340847492218 0 255 0
0.120845317841 0.107563614845 0.209804102778 0 255 0
-0.268321484327 -0.104552254081 -0.021089958027 0 255 0
0.261411488056 -0.111615017056 -0.0296452231705 0 255 0
0.244123533368 -0.105873949826 -0.338411211967 0 255 0
-0.265050679445 -0.102052375674 0.159955605865 0 255 0
0.231637015939 -0.108797617257 0.282218188047 0 255 0
-0.264815986156 -0.104014463723 0.221006169915 0 255 0
-0.261828422546 -0.105394437909 -0.149131506681 0 255 0
-0.266278743744 -0.104724489152 -0.310681164265 0 255 0
-0.226994216442 -0.104257464409 0.282157421112 0 255 0
-0.262407153845 -0.104804173112 -0.0443708226085 0 255 0
0.0988686382771 0.106750920415 0.209978580475 0 255 0
0.112927824259 0.107412517071 0.210517257452 0 255 0
0.0778943821788 0.108987145126 0.224289923906 0 255 0
-0.0382314696908 0.109430037439 -0.128203511238 0 255 0
-0.261910766363 -0.104268550873 -0.249179631472 0 255 0
-0.265193939209 -0.106039389968 -0.0561594329774 0 255 0
0.0732989311218 0.108593821526 0.22298681736 0 255 0
0.101077049971 0.107716836035 0.21062669158 0 255 0
-0.232248604298 -0.102764748037 0.280665457249 0 255 0
0.0738692134619 0.108968645334 0.221851438284 0 255 0
0.262683689594 -0.110998302698 -0.0593235827982 0 255 0
0.262582331896 -0.109248876572 -0.346090108156 0 255 0
-0.060891404748 0.108578547835 0.234201803803 0 255 0
0.234117656946 -0.110281564295 0.283950746059 0 255 0
-0.267222702503 -0.105075851083 -0.184800118208 0 255 0
0.0987650603056 0.107232503593 0.237010657787 0 255 0
-0.0563538484275 0.10943878442 0.220506355166 0 255 0
0.108433194458 0.105201952159 -0.174989491701 0 255 0
-0.265881121159 -0.103768743575 0.195634514093 0 255 0
-0.217083975673 -0.105299636722 0.284322857857 0 255 0
0.236516579986 -0.110003322363 -0.350532472134 0 255 0
-0.250767230988 -0.0999916940928 0.278595030308 0 255 0
0.0765217468143 0.108206130564 0.223500713706 0 255 0
0.22936822474 -0.110518924892 -0.348904192448 0 255 0
0.261122405529 -0.112561896443 0.0946882590652 0 255 0
0.0732365325093 0.107228547335 0.222594678402 0 255 0
-0.267672508955 -0.104909531772 -0.263243973255 0 255 0
0.257651180029 -0.108719140291 -0.345686525106 0 255 0
0.0997235551476 0.107497498393 0.236364036798 0 255 0
-0.122016884387 0.108602426946 0.241539433599 0 255 0
0.113930054009 0.104380898178 -0.176042914391 0 255 0
-0.0149739440531 0.109005734324 0.216253891587 0 255 0
0.225968435407 -0.110100902617 0.282715886831 0 255 0
-0.236833110452 -0.0295618698001 -0.343771696091 0 255 0
-0.264382392168 -0.102810643613 0.0616110451519 0 255 0
-0.268164813519 -0.104217812419 0.0377811864018 0 255 0
-0.267944812775 -0.106393039227 -0.0929588451982 0 255 0
0.107919812202 0.106124550104 0.209761306643 0 255 0
0.0911669433117 0.107304096222 0.23671643436 0 255 0
0.259757786989 -0.109913013875 -0.345686525106 0 255 0
-0.0448267459869 0.108655773103 -0.167269915342 0 255 0
0.0857876986265 0.107534833252 0.232496246696 0 255 0
-0.216179698706 -0.104837603867 0.286368638277 0 255 0
0.105339199305 0.107378579676 0.213453054428 0 255 0
-0.00647435244173 0.10791040957 0.21280297637 0 255 0
-0.0620993711054 0.109305456281 0.233262985945 0 255 0
0.262191027403 -0.112301401794 0.0754725635052 0 255 0
0.107538990676 0.108345523477 0.222993791103 0 255 0
0.0818150267005 0.108697205782 0.233905285597 0 255 0
0.260983109474 -0.11280772835 0.101894147694 0 255 0
-0.264732450247 -0.105182565749 -0.204990744591 0 255 0
-0.251800298691 -0.102114148438 -0.336505025625 0 255 0
0.0838799849153 0.107634626329 0.229296222329 0 255 0
0.12850035727 0.105870433152 0.234171420336 0 255 0
0.261333584785 -0.111425809562 0.266209930182 0 255 0
0.110646784306 0.107957936823 0.221536144614 0 255 0
0.124129779637 0.10680551827 0.240064546466 0 255 0
-0.266880184412 -0.102669492364 0.0806720480323 0 255 0
0.129274725914 0.105938479304 0.23262283206 0 255 0
-0.263827592134 -0.105775371194 -0.172273248434 0 255 0
-0.0383276417851 0.109593383968 -0.134597703815 0 255 0
0.261053770781 -0.110172457993 -0.156843200326 0 255 0
0.253590971231 -0.106716185808 -0.339073210955 0 255 0
-0.0491675585508 0.108274266124 0.234696567059 0 255 0
-0.253141224384 -0.104884274304 -0.344843924046 0 255 0
-0.265241503716 -0.10172829777 0.147269770503 0 255 0
0.262299388647 -0.112110197544 0.0698679834604 0 255 0
-0.268213838339 -0.104735054076 -0.0139344111085 0 255 0
0.261752694845 -0.111012987792 -0.0472918152809 0 255 0
0.260952144861 -0.112862363458 0.103495456278 0 255 0
0.081064902246 0.107183240354 0.224860727787 0 255 0
-0.264635026455 -0.104542590678 0.0417198464274 0 255 0
0.261973381042 -0.112088344991 0.123328082263 0 255 0
0.260589063168 -0.111438147724 -0.0232282802463 0 255 0
-0.26856353879 -0.104741610587 -0.0856399983168 0 255 0
0.24641045928 -0.108961507678 -0.348510563374 0 255 0
-0.266151607037 -0.101745896041 0.132205352187 0 255 0
-0.00325338705443 0.109334349632 0.217685967684 0 255 0
-0.26468488574 -0.106242120266 -0.107466183603 0 255 0
-0.267488628626 -0.103648275137 -0.296759516001 0 255 0
0.258828818798 -0.110551200807 0.178608477116 0 255 0
0.262008786201 -0.11115527153 -0.0972006469965 0 255 0
-0.261686593294 -0.104334399104 -0.243428871036 0 255 0
-0.00557284755632 0.109222777188 0.220004439354 0 255 0
-0.00807252712548 0.108653195202 0.212790966034 0 255 0
-0.26227837801 -0.105927824974 -0.0754164904356 0 255 0
-0.0485828258097 0.109102934599 0.231441065669 0 255 0
-0.0373700782657 0.109520353377 0.216634109616 0 255 0
0.0819149240851 0.107748530805 0.226307779551 0 255 0
0.246946647763 -0.103052437305 -0.336814939976 0 255 0
0.108322121203 0.106720969081 -0.17776183784 0 255 0
-0.20683632791 0.151703715324 -0.0549380779266 0 255 0
-0.0355051085353 0.108546711504 -0.134132966399 0 255 0
-0.263130545616 -0.10455430299 0.00189721619245 0 255 0
0.0836208313704 0.10742444545 0.234816923738 0 255 0
0.0869707465172 0.108031757176 0.209661707282 0 255 0
-0.246293246746 -0.105291470885 -0.347632497549 0 255 0
-0.23970104754 -0.102533437312 0.278221786022 0 255 0
-0.00133918423671 0.10791387409 0.217694491148 0 255 0
-0.0364362262189 0.10911116749 -0.134948655963 0 255 0
-0.26264294982 -0.0333226695657 -0.346611440182 0 255 0
-0.0612599365413 0.108941785991 0.215367481112 0 255 0
-0.0590330548584 0.109025537968 0.213729068637 0 255 0
-0.0677381679416 0.108208306134 0.228812903166 0 255 0
0.0811358988285 0.108326435089 0.211610168219 0 255 0
0.0542536564171 0.107122994959 -0.126116648316 0 255 0
0.12872928381 0.105453543365 0.21222756803 0 255 0
-0.0124098109081 0.108920432627 0.215178608894 0 255 0
-0.0582540780306 0.107984758914 0.214215174317 0 255 0
-0.261758804321 -0.105512678623 -0.144503176212 0 255 0
0.110080420971 0.107350707054 0.229494065046 0 255 0
-0.264995515347 -0.10333558172 0.0663770213723 0 255 0
-0.26682049036 -0.102770864964 0.0846400260925 0 255 0
-0.000931871589273 0.109200105071 0.221550092101 0 255 0
0.262210577726 -0.110799208283 -0.107637695968 0 255 0
0.0999499857426 0.107264094055 0.234842449427 0 255 0
0.0688967257738 0.106201402843 -0.178280323744 0 255 0
-0.233303025365 -0.027370704338 -0.347049415112 0 255 0
0.262049108744 -0.111678272486 -0.135950088501 0 255 0
-0.0409366749227 0.109055705369 0.216773837805 0 255 0
-0.0727367177606 0.108941733837 0.218220159411 0 255 0
-0.0457949079573 0.109074816108 0.232757523656 0 255 0
0.240015700459 -0.109860144556 -0.347859621048 0 255 0
-0.260618895292 -0.105769902468 -0.183428928256 0 255 0
-0.0358204320073 0.10867203027 -0.1308183074 0 255 0
-0.253722727299 -0.105034694076 -0.350423425436 0 255 0
0.107921279967 0.106330350041 -0.175004571676 0 255 0
0.261877149343 -0.112095832825 -0.0248325169086 0 255 0
-0.213536679745 -0.105512693524 0.285314083099 0 255 0
0.081791266799 0.108737565577 0.232325419784 0 255 0
0.247948125005 -0.105764523149 -0.339081943035 0 255 0
-0.0635537803173 0.109352692962 0.231610521674 0 255 0
0.0980026349425 0.108435936272 0.233328968287 0 255 0
0.260143220425 -0.111476220191 0.182604432106 0 255 0
-0.209068924189 0.145110309124 -0.0370684638619 0 255 0
-0.228302448988 -0.02912241593 -0.342372834682 0 255 0
-0.0619363337755 0.108641639352 0.214049264789 0 255 0
0.103594012558 0.107560604811 0.235590487719 0 255 0
0.070651717484 0.106972835958 -0.170668855309 0 255 0
-0.0131651638076 0.107820689678 0.215744897723 0 255 0
-0.0643515214324 0.10867010802 0.221550107002 0 255 0
0.0719892680645 0.107959583402 0.222058340907 0 255 0
0.10513818264 0.108065642416 0.223213538527 0 255 0
-0.00557171320543 0.109081432223 0.223559424281 0 255 0
-0.2667966187 -0.102811411023 0.0862272009254 0 255 0
-0.263269633055 -0.104124471545 -0.342535495758 0 255 0
0.117848813534 0.107286259532 0.208681598306 0 255 0
-0.0805516019464 0.109327852726 0.21554800868 0 255 0
-0.247964531183 -0.103069834411 0.284213393927 0 255 0
0.0713230669498 0.106129236519 -0.177566945553 0 255 0
-0.0404987484217 0.109894506633 0.2149618119 0 255 0
-0.251469224691 -0.0957852825522 0.276132851839 0 255 0
0.261397540569 -0.111480772495 0.117088697851 0 255 0
-0.0355821959674 0.108543343842 -0.133088976145 0 255 0
-0.265431076288 -0.103848904371 0.0738437026739 0 255 0
-0.264978766441 -0.104575388134 -0.226855680346 0 255 0
0.220994889736 -0.109616301954 0.284654021263 0 255 0
-0.266676217318 -0.103382669389 0.236716344953 0 255 0
0.00334268226288 0.107466556132 0.216885656118 0 255 0
-0.0557190589607 0.109741203487 0.222579658031 0 255 0
0.0882037356496 0.107676103711 0.223856717348 0 255 0
0.0989411845803 0.108475230634 0.211610168219 0 255 0
0.116752639413 0.107885874808 0.230175569654 0 255 0
-0.267942905426 -0.102793157101 0.197901859879 0 255 0
-0.0744577869773 0.109490334988 0.238730221987 0 255 0
-0.262497991323 -0.10614554584 -0.138757646084 0 255 0
-0.0396543368697 0.109155625105 0.214530318975 0 255 0
-0.0404589027166 0.10982683301 0.217610865831 0 255 0
-0.0604895204306 0.108826510608 0.223647385836 0 255 0
-0.0584724061191 0.108093850315 0.223343238235 0 255 0
-0.262704908848 -0.106384783983 -0.201256394386 0 255 0
-0.26691120863 -0.102616786957 0.0786086916924 0 255 0
0.261803537607 -0.111360035837 0.0594594813883 0 255 0
0.262005895376 -0.110266000032 -0.316276341677 0 255 0
0.0930784493685 0.107165649533 0.223734915257 0 255 0
-0.22200717032 -0.105896703899 0.283333092928 0 255 0
-0.230986982584 -0.0307298768312 -0.341590970755 0 255 0
0.102038271725 0.108439594507 0.21315728128 0 255 0
-0.264982104301 -0.102731972933 0.049060638994 0 255 0
-0.0720466300845 0.109269529581 0.220502108335 0 255 0
-0.266616880894 -0.104909583926 -0.0474419444799 0 255 0
0.106021255255 0.106606200337 0.210942700505 0 255 0
0.0932156667113 0.108510322869 0.23671643436 0 255 0
-0.0391567870975 0.108170643449 0.219198569655 0 255 0
-0.20702187717 0.14969907701 -0.0537223517895 0 255 0
-0.267341971397 -0.105846293271 -0.0985345244408 0 255 0
-0.0529680624604 0.109103225172 0.222627997398 0 255 0
-0.0707007721066 0.109983421862 0.222784072161 0 255 0
0.119800247252 0.106139548123 0.209586173296 0 255 0
0.0889378860593 0.107431083918 0.220062032342 0 255 0
-0.0612661987543 0.108374714851 0.233277097344 0 255 0
0.109047785401 0.106071747839 -0.168264105916 0 255 0
0.261912405491 -0.112793073058 0.0898843407631 0 255 0
0.100495897233 0.107719264925 0.230949133635 0 255 0
0.261524885893 -0.111851707101 0.073871254921 0 255 0
-0.229638844728 -0.0299361329526 -0.341590970755 0 255 0
-0.266895234585 -0.105252332985 -0.305888831615 0 255 0
0.103196762502 0.107705816627 0.233186125755 0 255 0
-0.266919285059 -0.105211526155 -0.307486265898 0 255 0
0.107646621764 0.108162723482 0.23014934361 0 255 0
0.102365531027 0.106918402016 0.21214017272 0 255 0
-0.01399389375 0.10930635035 0.216132849455 0 255 0
-0.265417635441 -0.102396391332 0.2295871526 0 255 0
0.261389881372 -0.111058987677 0.00813596695662 0 255 0
0.26262396574 -0.110663920641 -0.165682598948 0 255 0
-0.268379867077 -0.103852547705 0.0234832689166 0 255 0
-0.0707236528397 0.110022291541 0.221262767911 0 255 0
-0.264759838581 -0.103141106665 0.130668625236 0 255 0
0.0749460980296 0.107874847949 0.221666425467 0 255 0
-0.266668200493 -0.1024319157 0.143305450678 0 255 0
-0.0393828749657 0.10843039304 0.216278403997 0 255 0
-0.0628803223372 0.107929453254 0.223764792085 0 255 0
0.241192504764 -0.108473695815 -0.343570590019 0 255 0
-0.226977840066 -0.0282887239009 -0.343936622143 0 255 0
0.106559500098 0.106793254614 0.212029337883 0 255 0
-0.262698501348 -0.105879977345 -0.0180854983628 0 255 0
0.261858046055 -0.111097566783 0.202488005161 0 255 0
-0.0635778084397 0.109711237252 0.22077730298 0 255 0
0.26166421175 -0.111605867743 0.066665366292 0 255 0
-0.0334854498506 0.109348349273 -0.133143663406 0 255 0
0.10127209872 0.107479684055 0.23713760078 0 255 0
0.00295579596423 0.108153499663 0.218323141336 0 255 0
0.106901392341 0.107860721648 0.226174026728 0 255 0
0.073522977531 0.1088103652 0.220526814461 0 255 0
0.110045686364 0.10696709156 0.214184358716 0 255 0
0.0956112369895 0.107730023563 0.234484955668 0 255 0
-0.265876621008 -0.10190038383 0.141402557492 0 255 0
0.0850061029196 0.108420297503 0.210063055158 0 255 0
0.0902766138315 0.108377613127 0.232075184584 0 255 0
0.110723957419 0.108324341476 0.225389540195 0 255 0
-0.207701176405 0.145696118474 -0.0393602885306 0 255 0
-0.268257796764 -0.104889877141 -0.207920581102 0 255 0
0.262337088585 -0.111872918904 0.213666424155 0 255 0
0.254459828138 -0.107288859785 -0.337292522192 0 255 0
0.117527298629 0.107830837369 0.231722682714 0 255 0
0.107035629451 0.107787869871 0.233821600676 0 255 0
0.0973977819085 0.107877925038 0.226307779551 0 255 0
-0.247988447547 -0.103029213846 0.282623261213 0 255 0
0.261188954115 -0.113040134311 0.0546163506806 0 255 0
0.0958497524261 0.107834227383 0.227081343532 0 255 0
0.0879542902112 0.107235945761 0.23675866425 0 255 0
-0.0399934798479 0.107791729271 0.238125383854 0 255 0
0.26044049859 -0.112292960286 -0.0522410646081 0 255 0
0.112256705761 0.107965834439 0.214071333408 0 255 0
-0.0641286224127 0.10892059654 0.217470809817 0 255 0
-0.0344919674098 0.108282618225 0.23279453814 0 255 0
0.0538072809577 0.107375882566 -0.163511827588 0 255 0
0.116094894707 0.106659598649 0.211716994643 0 255 0
-0.0380880199373 0.109027512372 0.218081504107 0 255 0
-0.265357106924 -0.106358140707 -0.115598216653 0 255 0
0.103707306087 0.107898533344 0.223369508982 0 255 0
0.245699808002 -0.105575121939 0.283132314682 0 255 0
-0.268329739571 -0.104767672718 -0.212704122066 0 255 0
0.261473536491 -0.111505560577 -0.0328536964953 0 255 0
0.211659818888 -0.113445214927 0.287595331669 0 255 0
0.0724108219147 0.107775621116 0.220839351416 0 255 0
0.261250436306 -0.111305043101 0.0153484409675 0 255 0
-0.264568865299 -0.103465482593 0.14336617291 0 255 0
0.260744124651 -0.111164495349 -0.0312494598329 0 255 0
-0.122361667454 0.108707726002 0.208412051201 0 255 0
0.261490345001 -0.111317031085 0.112289167941 0 255 0
0.0873305872083 0.108193650842 0.216251522303 0 255 0
-0.262580573559 -0.105414569378 -0.0955073311925 0 255 0
0.100154824555 0.107625536621 0.224248051643 0 255 0
0.0797536969185 0.107836842537 0.223636120558 0 255 0
-0.251131087542 -0.101679004729 -0.337700843811 0 255 0
0.262365788221 -0.110525302589 -0.1156661883 0 255 0
0.250362843275 -0.110565826297 0.28538030386 0 255 0
-0.248430788517 -0.0293821860105 -0.349745631218 0 255 0
-0.0621014684439 0.108330830932 0.230555668473 0 255 0
0.11547754705 0.107692360878 0.229486882687 0 255 0
0.0789757147431 0.108435794711 0.223339930177 0 255 0
0.26108533144 -0.110562466085 -0.0488960519433 0 255 0
0.261462837458 -0.111794918776 0.222928524017 0 255 0
-0.00496018817648 0.107947520912 0.220657333732 0 255 0
-0.0785609483719 0.11005692929 0.217949360609 0 255 0
-0.251442164183 -0.0952747613192 -0.331447929144 0 255 0
0.0925502404571 0.107772581279 0.216911062598 0 255 0
-0.0331351570785 0.108750768006 0.230305805802 0 255 0
0.13070371747 0.106574915349 0.209527999163 0 255 0
0.115977212787 0.108033187687 0.226307779551 0 255 0
-0.265313923359 -0.106431461871 -0.112728111446 0 255 0
0.261227577925 -0.112051300704 0.0820379108191 0 255 0
0.108232438564 0.108368329704 0.216251522303 0 255 0
0.0741709321737 0.107991404831 0.218572199345 0 255 0
-0.267049342394 -0.104310885072 0.257311791182 0 255 0
0.262537032366 -0.111852712929 -0.0883693024516 0 255 0
0.262701660395 -0.110526844859 -0.16970051825 0 255 0
-0.268276274204 -0.105229526758 -0.0665409713984 0 255 0
0.104368664324 0.107505559921 0.23713760078 0 255 0
0.0833749547601 0.107751168311 0.222190186381 0 255 0
0.0861286222935 0.106976591051 0.215622156858 0 255 0
-0.0767281427979 0.108812518418 0.215367481112 0 255 0
0.251893252134 -0.105783112347 -0.338427960873 0 255 0
-0.267379879951 -0.103518359363 -0.298674702644 0 255 0
0.24923081696 -0.104295261204 -0.337961554527 0 255 0
0.10513766855 0.10812715441 0.221666425467 0 255 0
-0.252976924181 -0.101286560297 0.278416842222 0 255 0
0.0915969088674 0.107629366219 0.232075184584 0 255 0
-0.0658791065216 0.109664417803 0.222978040576 0 255 0
-0.0558447800577 0.108833387494 0.219231620431 0 255 0
0.260401695967 0.097808547318 0.271465599537 0 255 0
-0.267871439457 -0.102914579213 0.202654659748 0 255 0
0.0881090983748 0.107677266002 0.229402020574 0 255 0
0.250473231077 -0.105014711618 -0.337621450424 0 255 0
-0.260611206293 -0.103339061141 0.27333521843 0 255 0
0.104965306818 0.107049286366 0.226393550634 0 255 0
0.0876603424549 0.108257725835 0.217785224319 0 255 0
0.128495469689 0.106455355883 0.219459891319 0 255 0
-0.254142314196 -0.0996662452817 0.277284532785 0 255 0
-0.209478765726 0.147060275078 -0.0370348468423 0 255 0
-0.265948176384 -0.10177885741 0.136645376682 0 255 0
0.00327133201063 0.108409941196 0.216268897057 0 255 0
-0.235150918365 -0.105780519545 -0.340458959341 0 255 0
0.260107904673 -0.108121737838 -0.290139049292 0 255 0
-0.208586230874 0.146167606115 -0.0386926271021 0 255 0
-0.23553070426 -0.0334965363145 -0.338932573795 0 255 0
-0.0639396756887 0.108043067157 0.234563976526 0 255 0
0.071665532887 0.10584744066 -0.170479699969 0 255 0
0.107638761401 0.105988286436 -0.168159559369 0 255 0
-0.00325133209117 0.109088532627 0.223868578672 0 255 0
0.083464756608 0.107576936483 0.230949133635 0 255 0
0.26028239727 -0.110636480153 0.212069496512 0 255 0
-0.252446353436 -0.0986563935876 0.276955753565 0 255 0
-0.266092300415 -0.0330464094877 -0.347763717175 0 255 0
-0.266342610121 -0.103949286044 0.258896052837 0 255 0
0.08500970155 0.107989706099 0.220892876387 0 255 0
0.116563342512 0.105763204396 0.208789497614 0 255 0
0.094303779304 0.107544481754 0.234043359756 0 255 0
0.262264966965 -0.111737161875 -0.0376664027572 0 255 0
0.212931156158 -0.114151164889 0.287272423506 0 255 0
0.255370736122 -0.111199885607 0.286326140165 0 255 0
-0.265719205141 -0.102167755365 0.151868373156 0 255 0
-0.267246693373 -0.105035118759 -0.186394691467 0 255 0
0.0552200265229 0.105919189751 -0.126580029726 0 255 0
-0.265603125095 -0.1035566926 0.0624053515494 0 255 0
-0.261096119881 -0.10403290391 -0.307999104261 0 255 0
0.0923156887293 0.107358708978 0.229042366147 0 255 0
0.111273005605 0.108463518322 0.217557176948 0 255 0
0.0871850028634 0.107667841017 0.22390691936 0 255 0
-0.235930591822 -0.0313199982047 -0.343132138252 0 255 0
-0.261692613363 -0.104399934411 -0.241626977921 0 255 0
0.259835600853 0.099240295589 0.271741330624 0 255 0
-0.0413905158639 0.109232753515 0.218935415149 0 255 0
-0.0294831190258 0.108938015997 0.23355461657 0 255 0
-0.256438434124 -0.101045921445 0.278092414141 0 255 0
0.115515485406 0.107759200037 0.227526977658 0 255 0
-0.264941245317 -0.105772189796 -0.19142498076 0 255 0
0.25443392992 -0.107334472239 -0.335954666138 0 255 0
-0.061341330409 0.108834497631 0.218626350164 0 255 0
-0.02838280797 0.108174443245 0.233183890581 0 255 0
-0.0486099198461 0.108888469636 -0.124756678939 0 255 0
-0.238021537662 -0.102989435196 -0.338895112276 0 255 0
0.242579802871 -0.109296232462 -0.34276497364 0 255 0
-0.266670793295 -0.104220412672 -0.00248556421138 0 255 0
-0.21446762979 0.152671024203 -0.051118157804 0 255 0
0.261713296175 -0.111618347466 -0.133057206869 0 255 0
0.11454539746 0.10661586374 0.212491288781 0 255 0
-0.0648733749986 0.108477897942 0.234455123544 0 255 0
-0.0791926160455 0.109632790089 0.21946772933 0 255 0
-0.262465447187 -0.105610094965 -0.0878536775708 0 255 0
-0.261297345161 -0.104995511472 -0.21755027771 0 255 0
0.261179119349 -0.111724682152 0.175092026591 0 255 0
0.260728389025 -0.110550671816 0.254403591156 0 255 0
0.105009160936 0.107126660645 0.224125519395 0 255 0
0.0780432894826 0.107820756733 0.223677664995 0 255 0
-0.263342738152 -0.10482160002 0.00603530043736 0 255 0
-0.0791307091713 0.108629368246 0.21317897737 0 255 0
-0.229112535715 -0.027270141989 -0.34416693449 0 255 0
-0.0836813822389 0.108778707683 0.21723818779 0 255 0
0.0950774103403 0.107612460852 0.232496246696 0 255 0
-0.265010356903 -0.104951329529 -0.348291575909 0 255 0
-0.0713152959943 0.108980670571 0.212276175618 0 255 0
-0.212884709239 0.153456583619 -0.0511326640844 0 255 0
-0.0456369444728 0.108659893274 -0.166644692421 0 255 0
0.260654360056 -0.110681302845 0.258232653141 0 255 0
0.261103689671 -0.111999288201 0.132287219167 0 255 0
-0.258530437946 -0.103856414557 -0.335130929947 0 255 0
0.108732387424 0.104752451181 -0.168778687716 0 255 0
0.250766992569 -0.108497239649 0.28425014019 0 255 0
-0.261490285397 -0.104982718825 -0.22122438252 0 255 0
0.113686442375 0.107694752514 0.215296402574 0 255 0
-0.0705406069756 0.108833491802 0.216140314937 0 255 0
-0.267279058695 -0.103689596057 -0.291971623898 0 255 0
-0.0737621560693 0.108463592827 0.214569017291 0 255 0
0.114771716297 0.107976853848 0.232049867511 0 255 0
-0.266880333424 -0.10625500232 -0.210576727986 0 255 0
0.0888781026006 0.10829886049 0.213930845261 0 255 0
0.26085922122 -0.11210591346 0.137726679444 0 255 0
0.0893508642912 0.108670771122 0.23182092607 0 255 0
0.0875689610839 0.106434233487 0.209544792771 0 255 0
0.0826854705811 0.108185589314 0.215477958322 0 255 0
0.0314516983926 0.108646281064 0.230304449797 0 255 0
0.0316955856979 0.108675181866 0.233638375998 0 255 0
0.0961134433746 0.108039237559 0.216038376093 0 255 0
0.046349607408 0.108073137701 0.238284990191 0 255 0
-0.224151343107 -0.104885146022 0.283144950867 0 255 0
-0.0282896067947 0.108023628592 0.235358133912 0 255 0
-0.21382124722 0.151970937848 -0.0517779402435 0 255 0
0.260852694511 -0.110972940922 -0.036864284426 0 255 0
0.0720481872559 0.108063548803 0.219010874629 0 255 0
-0.046423856169 0.109356194735 0.234422877431 0 255 0
-0.265588223934 -0.103668630123 0.263648837805 0 255 0
0.0901710316539 0.108191393316 0.237534269691 0 255 0
-0.26474609971 -0.103820562363 0.216566130519 0 255 0
-0.0343501903117 0.108440451324 0.230632960796 0 255 0
-0.0816783457994 0.108814172447 0.214285507798 0 255 0
0.108730487525 0.107712455094 0.214184358716 0 255 0
-0.0617022663355 0.108244076371 0.229611366987 0 255 0
0.092756524682 0.107408516109 0.23713760078 0 255 0
0.115582488477 0.107877522707 0.224059432745 0 255 0
-0.0489144399762 0.10979475826 -0.123901672661 0 255 0
-0.267704635859 -0.10319788754 0.21374450624 0 255 0
-0.211565062404 0.148992389441 -0.0369044654071 0 255 0
0.0912023261189 0.108102977276 0.219345748425 0 255 0
0.112975791097 0.107331141829 0.213703364134 0 255 0
0.262201905251 -0.111147664487 -0.149643152952 0 255 0
-0.0685495138168 0.1089258641 0.223094731569 0 255 0
0.261599093676 -0.111395739019 0.0628222152591 0 255 0
-0.0420432649553 0.108164936304 0.238803327084 0 255 0
-0.119842000306 0.107929050922 0.242145463824 0 255 0
0.0850102156401 0.107928194106 0.222439989448 0 255 0
-0.0255651157349 0.108819521964 0.233289390802 0 255 0
0.114881582558 0.106471441686 0.214222222567 0 255 0
-0.256542414427 -0.0319578796625 -0.347788691521 0 255 0
0.106690838933 0.10755572468 0.236364036798 0 255 0
0.112994365394 0.106756843626 0.208619832993 0 255 0
0.10653026402 0.106741666794 0.213541358709 0 255 0
-0.242547556758 -0.101853400469 0.275649964809 0 255 0
0.11184822768 0.107245057821 0.235198646784 0 255 0
0.116225004196 0.108597487211 0.232501327991 0 255 0
0.114345572889 0.106628291309 0.21748188138 0 255 0
0.0879982188344 0.10784714669 0.232612326741 0 255 0
0.0325425155461 0.107300616801 0.234207600355 0 255 0
-0.264813631773 -0.103550620377 0.141652002931 0 255 0
0.0427643544972 0.108978822827 0.217986866832 0 255 0
0.0894460454583 0.108509004116 0.238152116537 0 255 0
0.0426588617265 0.109091706574 0.216808751225 0 255 0
0.26040700078 -0.110008753836 -0.152343168855 0 255 0
0.118496693671 0.1062027812 0.209165722132 0 255 0
0.091202840209 0.108041465282 0.220892876387 0 255 0
0.085526920855 0.108773365617 0.229306191206 0 255 0
0.0702994465828 0.108051322401 0.216251522303 0 255 0
0.0326067619026 0.107413984835 0.230884730816 0 255 0
0.033411949873 0.108957335353 0.234873622656 0 255 0
0.109012238681 0.10769815743 0.233269810677 0 255 0
-0.0825547128916 0.110071621835 0.215083509684 0 255 0
-0.0285400729626 0.109448507428 0.23485532403 0 255 0
0.0315221250057 0.108526654541 0.234986960888 0 255 0
-0.208851709962 0.143979340792 -0.0366510562599 0 255 0
-0.0769381374121 0.10868794471 0.219604596496 0 255 0
0.260325402021 -0.111903354526 -0.00959227792919 0 255 0
0.0702989324927 0.108112834394 0.214704394341 0 255 0
0.257755994797 -0.11250128597 0.285208284855 0 255 0
-0.267187654972 -0.104440785944 -0.334483087063 0 255 0
-0.0271813087165 0.10862133652 0.216242015362 0 255 0
-0.0836890935898 0.108785070479 0.214594662189 0 255 0
-0.026825806126 0.108325526118 0.230924844742 0 255 0
-0.260967075825 -0.103635430336 0.275859683752 0 255 0
0.100669518113 0.108692325652 0.227170035243 0 255 0
0.129030421376 0.106179490685 0.242180779576 0 255 0
0.0988224521279 0.108346521854 0.225004792213 0 255 0
0.111162088811 0.107565894723 0.236707746983 0 255 0
0.00240176869556 0.107993736863 0.213485315442 0 255 0
0.261672258377 -0.111861974001 0.0224006269127 0 255 0
0.0321991927922 0.109055176377 0.232158184052 0 255 0
-0.266989767551 -0.104412063956 0.261272460222 0 255 0
0.260139912367 -0.110833153129 0.168378829956 0 255 0
0.0904261246324 0.108342558146 0.21315728128 0 255 0
0.00484749767929 0.108032390475 0.217277780175 0 255 0
-0.232330009341 -0.106346346438 -0.341645002365 0 255 0
-0.0697648823261 0.108563415706 0.223095759749 0 255 0
0.0958323180676 0.107235759497 0.237399145961 0 255 0
0.260500013828 -0.111440837383 0.127487689257 0 255 0
0.123082265258 0.106532767415 0.209441244602 0 255 0
-0.232339933515 -0.0315156430006 -0.34190505743 0 255 0
-0.25516590476 -0.0979410633445 0.275530844927 0 255 0
-0.0833667069674 0.109656170011 0.213263228536 0 255 0
0.115355163813 0.107476316392 0.235818952322 0 255 0
-0.0813065692782 0.108750902116 0.215954825282 0 255 0
0.0337496735156 0.10891892761 0.23297098279 0 255 0
-0.0821404755116 0.108582906425 0.220004454255 0 255 0
0.262459427118 -0.111989669502 -0.0843550488353 0 255 0
-0.0840699076653 0.109055899084 0.215973526239 0 255 0
-0.0742545500398 0.108986832201 0.211503356695 0 255 0
-0.235949859023 -0.033696833998 -0.340283840895 0 255 0
0.0884305238724 0.108673416078 0.21599291265 0 255 0
-0.0827228873968 0.108275406063 0.216352909803 0 255 0
-0.0262240357697 0.107728011906 0.215945199132 0 255 0
-0.0812627375126 0.109647892416 0.21738910675 0 255 0
0.0712956264615 0.107618324459 0.217057541013 0 255 0
-0.0674464479089 0.108797892928 0.217685967684 0 255 0
0.0415652692318 0.108332775533 0.214769020677 0 255 0
-0.267105907202 -0.105362795293 0.0232744235545 0 255 0
0.0166071690619 0.107031583786 -0.162671327591 0 255 0
-0.267728447914 -0.103157415986 0.212160244584 0 255 0
0.064084097743 0.107396014035 0.23426656425 0 255 0
-0.266034036875 -0.101633019745 0.13093675673 0 255 0
0.0114455204457 0.10896551609 0.230051189661 0 255 0
-0.0176712796092 0.109138548374 0.232141792774 0 255 0
-0.0252200979739 0.10921253264 0.216132849455 0 255 0
-0.223631009459 -0.0262644179165 -0.345500379801 0 255 0
0.239181876183 -0.109687030315 -0.341216236353 0 255 0
0.260154813528 -0.112204365432 -0.00076898210682 0 255 0
0.0645528137684 0.107633113861 0.23305234313 0 255 0
0.112530745566 0.106592871249 0.212646126747 0 255 0
0.092903137207 0.108387865126 0.212538421154 0 255 0
-0.24082159996 -0.102438822389 -0.336909621954 0 255 0
0.0954099595547 0.108335502446 0.218310788274 0 255 0
0.109739981592 0.106717325747 0.208929538727 0 255 0
-0.0159126464278 0.107882350683 0.232407152653 0 255 0
0.258934795856 -0.109142936766 -0.302578151226 0 255 0
0.0129938814789 0.108794078231 0.234688147902 0 255 0
-0.255433648825 -0.102244146168 -0.328996926546 0 255 0
0.131591886282 0.106850683689 0.210168406367 0 255 0
0.0991508215666 0.10814216733 0.217170745134 0 255 0
0.109972633421 0.106838278472 0.217960745096 0 255 0
0.109713852406 0.108379848301 0.236858651042 0 255 0
0.0631164386868 0.10791964829 0.234816148877 0 255 0
0.100869357586 0.107043221593 0.228183105588 0 255 0
0.0112200267613 0.108064606786 0.230520039797 0 255 0
