ply
format ascii 1.0
comment https://github.com/EricCJoyce
element vertex 269
property float x
property float y
property float z
property uchar red
property uchar green
property uchar blue
end_header
-0.125895783305 -0.123084507883 0.369438976049 0 255 0
-0.122727192938 -0.125556781888 0.365897595882 0 255 0
-0.128053471446 -0.124283075333 0.368617415428 0 255 0
-0.124238342047 -0.122006766498 0.367467284203 0 255 0
0.129009231925 0.280273616314 0.771556317806 0 255 0
-0.12168764323 -0.120501540601 0.36697435379 0 255 0
-0.130409181118 -0.125687077641 0.36930206418 0 255 0
-0.120932601392 -0.120163924992 0.368617415428 0 255 0
-0.121918544173 -0.125113472342 0.366303145885 0 255 0
-0.123048782349 -0.121461413801 0.369833171368 0 255 0
-0.132345631719 0.368506461382 0.548281669617 0 255 0
-0.137161955237 0.370161354542 0.54957306385 0 255 0
-0.127501428127 0.208359271288 0.402981847525 0 255 0
-0.134224563837 0.371614187956 0.553655147552 0 255 0
-0.138318046927 0.36941421032 0.550871968269 0 255 0
-0.13839893043 0.369554042816 0.547779500484 0 255 0
-0.122921399772 -0.123297326267 0.401478886604 0 255 0
-0.132558584213 0.372675895691 0.552031159401 0 255 0
-0.123579755425 -0.123802095652 0.403532743454 0 255 0
-0.126725196838 0.213427066803 0.401326328516 0 255 0
-0.123389795423 -0.117189832032 0.370662212372 0 255 0
-0.123387463391 -0.123477697372 0.400000095367 0 255 0
-0.129163622856 0.211978644133 0.401954203844 0 255 0
-0.125063285232 -0.124660268426 0.403532743454 0 255 0
-0.125809103251 0.372063457966 0.55199611187 0 255 0
-0.126906588674 0.37148463726 0.551067531109 0 255 0
-0.1224244982 -0.116816319525 0.373725950718 0 255 0
-0.124759972095 -0.11964289099 0.398179262877 0 255 0
0.0967541262507 -0.222431659698 0.555637061596 0 255 0
-0.131713956594 0.373062342405 0.553724050522 0 255 0
-0.130155190825 0.373856216669 0.555510640144 0 255 0
-0.141560345888 0.210404351354 0.384091973305 0 255 0
-0.0651703849435 0.423620194197 0.503557980061 0 255 0
-0.140890881419 0.210839658976 0.383295565844 0 255 0
-0.106939315796 0.392815053463 0.538765251637 0 255 0
-0.108231797814 0.391974627972 0.540302813053 0 255 0
-0.10538829118 0.393823593855 0.536920189857 0 255 0
-0.131770297885 0.21253849566 0.367688119411 0 255 0
-0.130676329136 0.213209986687 0.367047339678 0 255 0
-0.12734413147 0.215137541294 0.367047339678 0 255 0
-0.138820067048 0.21208293736 0.382543444633 0 255 0
-0.128829225898 0.212285667658 0.400071918964 0 255 0
-0.122269064188 -0.122809320688 0.399645090103 0 255 0
-0.107376001775 0.388133049011 0.537282347679 0 255 0
-0.0582122057676 0.44343021512 0.541516304016 0 255 0
-0.109315082431 0.357668757439 0.49934092164 0 255 0
0.00502615887672 -0.167736932635 0.567189097404 0 255 0
-0.142120376229 0.201131850481 0.382613688707 0 255 0
0.0963813215494 -0.221787184477 0.54138302803 0 255 0
-0.129091709852 -0.117260947824 0.392067402601 0 255 0
0.100536890328 0.350361675024 0.610189259052 0 255 0
0.0957919433713 -0.315807878971 0.521221935749 0 255 0
-0.109723992646 0.352960675955 0.498556405306 0 255 0
0.0900173187256 -0.225038453937 0.53425604105 0 255 0
0.102464742959 0.356106668711 0.608350872993 0 255 0
-0.125745221972 0.211607322097 0.365990877151 0 255 0
-0.0645854845643 0.423838019371 0.505554914474 0 255 0
-0.139139309525 0.216335907578 0.38388979435 0 255 0
-0.0768812000751 -0.215183228254 0.493396103382 0 255 0
-0.0796022862196 -0.221210122108 0.492302060127 0 255 0
-0.131249845028 0.217108696699 0.371826797724 0 255 0
-0.0769356191158 -0.215088710189 0.491308182478 0 255 0
-0.109068237245 0.391748487949 0.536031901836 0 255 0
-0.109259091318 0.370554447174 0.585882544518 0 255 0
-0.130273774266 0.211594358087 0.397680401802 0 255 0
-0.138840407133 0.211964547634 0.384310305119 0 255 0
-0.122722037137 -0.118344195187 0.396193444729 0 255 0
0.0835067331791 -0.327332466841 0.519550979137 0 255 0
-0.0623829551041 0.425150722265 0.504914879799 0 255 0
-0.106863640249 0.396165281534 0.558857440948 0 255 0
0.107959717512 0.350796669722 0.599251151085 0 255 0
0.0289345663041 -0.178227677941 0.520913720131 0 255 0
0.0985655412078 0.376231312752 0.611900389194 0 255 0
-0.129663199186 0.213727384806 0.368185162544 0 255 0
-0.108509622514 0.395324379206 0.557014107704 0 255 0
-0.0790301784873 -0.220747843385 0.490125417709 0 255 0
-0.0332091487944 -0.167098924518 0.564515650272 0 255 0
0.10211687535 -0.219587549567 0.559913218021 0 255 0
0.102242417634 0.365045070648 0.607866048813 0 255 0
-0.131235584617 0.337660580873 0.545893371105 0 255 0
-0.109071783721 0.366119384766 0.586289346218 0 255 0
-0.104998603463 0.363548725843 0.593049943447 0 255 0
-0.128373458982 -0.21203123033 0.546636343002 0 255 0
-0.109780788422 0.394450008869 0.559318244457 0 255 0
-0.0596226900816 -0.18428209424 0.521181225777 0 255 0
0.0435486771166 -0.200560078025 0.581780314445 0 255 0
-0.130601972342 -0.213363796473 0.54735648632 0 255 0
-0.12687844038 0.215290158987 0.368982315063 0 255 0
0.0961975157261 -0.223037481308 0.560340821743 0 255 0
-0.0227544251829 -0.168113857508 0.53178358078 0 255 0
-0.0720964372158 -0.0121682025492 0.469917565584 0 255 0
-0.116090871394 0.371527791023 0.579147994518 0 255 0
-0.0622065253556 0.439976483583 0.560460567474 0 255 0
-0.00617720745504 -0.18011072278 0.515075683594 0 255 0
-0.105351030827 0.363412380219 0.591931402683 0 255 0
-0.138037204742 0.216988861561 0.383634030819 0 255 0
-0.125493049622 -0.21496668458 0.548008203506 0 255 0
-0.0154678691179 -0.131050512195 0.511628448963 0 255 0
0.097186692059 -0.333220809698 0.5236120224 0 255 0
-0.0617900304496 0.425370335579 0.506959497929 0 255 0
-0.0275716166943 -0.166582122445 0.535107553005 0 255 0
-0.120365522802 -0.211819395423 0.545005202293 0 255 0
-0.0310765001923 -0.189353615046 0.504444122314 0 255 0
-0.0608730912209 -0.189322993159 0.517845511436 0 255 0
-0.116750009358 -0.214408174157 0.547678947449 0 255 0
-0.135075137019 -0.211484670639 0.548221290112 0 255 0
0.0975748747587 -0.227454677224 0.571859657764 0 255 0
-0.102589815855 0.364753127098 0.596181929111 0 255 0
-0.022270925343 -0.165301635861 0.564701020718 0 255 0
-0.111139371991 0.389100730419 0.56005614996 0 255 0
0.206191793084 -0.263965040445 -0.477777868509 0 255 0
-0.112782873213 -0.233039274812 0.520029783249 0 255 0
0.102814696729 0.369909614325 0.607623636723 0 255 0
0.0185251329094 -0.173941373825 0.574753701687 0 255 0
-0.114992342889 0.37210714817 0.580077469349 0 255 0
-0.100390285254 0.374907165766 0.598768174648 0 255 0
-0.0784586593509 -0.220526695251 0.491939365864 0 255 0
0.101920172572 0.351161837578 0.610189259052 0 255 0
-0.032770935446 -0.186228394508 0.511296570301 0 255 0
0.0930182337761 -0.225237831473 0.566327571869 0 255 0
-0.0584065765142 -0.183599635959 0.521529376507 0 255 0
-0.101193740964 0.36556071043 0.596181869507 0 255 0
-0.112284556031 0.388411432505 0.560501039028 0 255 0
0.0209798514843 -0.178407251835 0.522520363331 0 255 0
-0.107896573842 0.387944936752 0.535409629345 0 255 0
0.00608350522816 -0.166910290718 0.56362593174 0 255 0
-0.113410234451 0.373089671135 0.578962087631 0 255 0
0.0978119000793 0.348689049482 0.611785233021 0 255 0
-0.0632266327739 0.42452070117 0.507268190384 0 255 0
-0.143187060952 -0.211585387588 0.547014057636 0 255 0
-0.012146987021 -0.129171311855 0.512321233749 0 255 0
-0.11356023699 0.387651115656 0.560871779919 0 255 0
0.0213316921145 -0.171789586544 0.56599855423 0 255 0
0.20472663641 -0.260045439005 -0.48189240694 0 255 0
0.189372867346 -0.259305655956 -0.491563916206 0 255 0
-0.106306485832 0.35840177536 0.590920746326 0 255 0
0.0905299261212 -0.225924611092 0.55385529995 0 255 0
-0.114655651152 0.387073397636 0.559944987297 0 255 0
0.204914003611 0.415475696325 0.756366848946 0 255 0
0.0907734856009 -0.225633189082 0.551360785961 0 255 0
-0.113923057914 0.380396902561 0.527837216854 0 255 0
-0.03110399656 -0.176861867309 0.52182751894 0 255 0
-0.330127090216 -0.24935323 -0.619150161743 0 255 0
-0.101089350879 0.365380048752 0.60017645359 0 255 0
-0.330154269934 -0.249306201935 -0.62019020319 0 255 0
-0.0569251291454 -0.182818308473 0.522782742977 0 255 0
-0.112327344716 -0.228450194001 0.523233175278 0 255 0
-0.0530055463314 -0.184806406498 0.518416941166 0 255 0
0.0243940465152 -0.174834132195 0.570922613144 0 255 0
0.00601762859151 -0.16679662466 0.56111073494 0 255 0
-0.0614388138056 0.440346360207 0.561690509319 0 255 0
0.208807453513 0.413130819798 0.757663309574 0 255 0
-0.110196426511 -0.216053962708 0.562890589237 0 255 0
-0.048110358417 0.449429452419 0.538936197758 0 255 0
-0.653120696545 -0.394809663296 -0.481198430061 0 255 0
-0.120908677578 -0.223368227482 -0.392111510038 0 255 0
-0.143114849925 0.211697474122 0.422647029161 0 255 0
-0.00445136800408 -0.17917573452 0.516125380993 0 255 0
-0.111634165049 -0.216910853982 0.563308358192 0 255 0
-0.139536336064 -0.213959366083 0.546465754509 0 255 0
-0.650977373123 -0.39356982708 -0.481198519468 0 255 0
-0.327699661255 -0.256286174059 -0.630761086941 0 255 0
-0.106928147376 -0.214084729552 0.561587035656 0 255 0
-0.119963340461 -0.227400287986 -0.391116738319 0 255 0
0.102609798312 0.378762304783 0.608726024628 0 255 0
-0.112804748118 -0.217672020197 0.564701020718 0 255 0
-0.0366793200374 -0.168056726456 0.547122359276 0 255 0
-0.1084452793 -0.215071246028 0.563391923904 0 255 0
-0.121051855385 -0.224659800529 0.526556789875 0 255 0
0.0902503207326 -0.225441262126 0.543164789677 0 255 0
-0.110017500818 -0.227417320013 0.528259277344 0 255 0
-0.105642274022 -0.208767473698 0.560682892799 0 255 0
-0.0685309544206 0.415298968554 0.609241366386 0 255 0
-0.327116549015 -0.256093710661 -0.628360629082 0 255 0
-0.118262916803 -0.111930079758 0.407531827688 0 255 0
-0.0867298468947 -0.223515242338 0.462175935507 0 255 0
0.0224594529718 -0.171386405826 0.570128083229 0 255 0
-0.050519362092 -0.183324635029 0.517694294453 0 255 0
0.204142928123 -0.269895672798 -0.474023103714 0 255 0
0.027285201475 -0.178083181381 0.577594578266 0 255 0
0.0945822149515 0.382726967335 0.615842759609 0 255 0
0.10707039386 0.350417166948 0.597014725208 0 255 0
-0.00999599974602 -0.12790197134 0.511905550957 0 255 0
0.00736801372841 0.411078393459 0.73279184103 0 255 0
-0.0456662587821 -0.184992596507 0.516972243786 0 255 0
-0.0326379612088 0.447720259428 0.56580966711 0 255 0
-0.129932314157 -0.117507480085 0.38809466362 0 255 0
-0.00818197149783 -0.172847792506 0.525269687176 0 255 0
-0.0621749423444 0.419670879841 0.597720623016 0 255 0
0.100935250521 0.364223301411 0.608953356743 0 255 0
-0.0115217342973 -0.166775867343 0.542403399944 0 255 0
-0.0591147057712 0.421634227037 0.594520509243 0 255 0
0.0983452126384 -0.226789563894 0.568221867085 0 255 0
-0.111852303147 -0.228266388178 0.524740934372 0 255 0
0.0228729620576 -0.171092435718 0.569220423698 0 255 0
-0.328837305307 -0.257119297981 -0.627860486507 0 255 0
-0.142469242215 0.211998865008 0.42384108901 0 255 0
-0.144230276346 0.202044487 0.422149986029 0 255 0
0.101055718958 0.368786752224 0.609369397163 0 255 0
-0.0737331733108 -0.190960362554 0.571473002434 0 255 0
-0.0438338629901 -0.183995455503 0.518013596535 0 255 0
0.00568687915802 0.410124689341 0.73248052597 0 255 0
0.0270732585341 -0.171306341887 0.538143992424 0 255 0
0.100282400846 0.372777611017 0.610706627369 0 255 0
-0.0396035946906 -0.169958218932 0.550601065159 0 255 0
-0.0585987195373 0.422075748444 0.592149972916 0 255 0
0.00316336844116 0.408598601818 0.733579993248 0 255 0
-0.0583715252578 0.42230027914 0.590606689453 0 255 0
0.191162422299 -0.25500664115 -0.620537936687 0 255 0
-0.118198141456 -0.221769705415 -0.392618179321 0 255 0
0.194387167692 -0.265650063753 -0.48812943697 0 255 0
-0.0600393712521 0.421099334955 0.594520509243 0 255 0
0.00309043563902 0.408724665642 0.730791449547 0 255 0
0.198226243258 -0.263482421637 -0.487248957157 0 255 0
0.185114517808 -0.241166725755 -0.60832285881 0 255 0
0.00378221389838 0.409078091383 0.73156607151 0 255 0
0.0172445978969 -0.169233486056 0.559345722198 0 255 0
0.00526312366128 0.409960716963 0.73113578558 0 255 0
-0.114185214043 0.377349197865 0.575830698013 0 255 0
-0.127281919122 -0.236202612519 -0.390289366245 0 255 0
0.112084262073 -0.22425404191 -0.390500754118 0 255 0
-0.330697447062 -0.249732375145 -0.618334949017 0 255 0
-0.0680262893438 0.415706753731 0.60732126236 0 255 0
-0.0385290645063 -0.169311448932 0.550183594227 0 255 0
-0.0227218866348 -0.170260757208 0.567673921585 0 255 0
-0.137578830123 0.214683756232 0.426228195429 0 255 0
-0.10887362808 -0.226882010698 0.530353486538 0 255 0
-0.134957373142 -0.11558163166 0.382894665003 0 255 0
0.0915483236313 -0.225262388587 0.552643656731 0 255 0
0.019172757864 -0.171559169888 0.541484117508 0 255 0
-0.111820757389 -0.228320926428 0.525947213173 0 255 0
-0.00911721214652 -0.177485719323 0.518277287483 0 255 0
0.19809858501 -0.259109258652 -0.486058175564 0 255 0
-0.129948571324 -0.23768389225 -0.391304671764 0 255 0
-0.08202842623 -0.21046847105 0.515693962574 0 255 0
0.104717381299 0.375639617443 0.605792582035 0 255 0
-0.0601474903524 -0.277270644903 -0.488989144564 0 255 0
-0.0180416591465 -0.165808230639 0.538752555847 0 255 0
-0.359217196703 -0.240485832095 -0.595646083355 0 255 0
0.206417918205 -0.241156920791 -0.628925442696 0 255 0
0.103332273662 0.357412874699 0.595020771027 0 255 0
-0.132092133164 -0.120859153569 0.42293381691 0 255 0
-0.0300347171724 0.435784190893 0.489022672176 0 255 0
-0.116122029722 -0.226324617863 0.526517927647 0 255 0
-0.0336111150682 -0.172155633569 0.569575190544 0 255 0
0.187730178237 -0.260246157646 -0.491725206375 0 255 0
0.185143366456 -0.24553462863 -0.610548377037 0 255 0
-0.00648980215192 -0.180440992117 0.517552256584 0 255 0
0.104405194521 0.424656510353 0.764019012451 0 255 0
0.106067419052 0.425549864769 0.765149116516 0 255 0
-0.358521312475 -0.240033328533 -0.596473932266 0 255 0
-0.0291120298207 0.43629181385 0.489455640316 0 255 0
-0.0110733881593 -0.178627789021 0.518451213837 0 255 0
-0.080721616745 -0.209712535143 0.515693962574 0 255 0
0.107548698783 0.421754956245 0.767351388931 0 255 0
-0.12215782702 0.363579601049 0.577819287777 0 255 0
0.0561375878751 -0.197702094913 0.580211758614 0 255 0
0.0914006903768 -0.225007176399 0.54699909687 0 255 0
0.20395514369 -0.238462924957 -0.622292280197 0 255 0
0.186355471611 -0.240365952253 -0.6096971035 0 255 0
-0.0454133339226 -0.172437295318 0.535990655422 0 255 0
-0.0124613065273 0.404524117708 0.726206541061 0 255 0
-0.543930828571 -0.248320490122 -0.514130115509 0 255 0
-0.0443994291127 -0.172102689743 0.540165066719 0 255 0
-0.542449831963 -0.24751457572 -0.513288617134 0 255 0
-0.00691754790023 -0.167904272676 0.530353486538 0 255 0
-0.542396962643 -0.247605890036 -0.511268794537 0 255 0
0.0908990874887 -0.225371658802 0.548230648041 0 255 0
-0.127168595791 -0.120737023652 0.39322155714 0 255 0
