ply
format ascii 1.0
comment https://github.com/EricCJoyce
element vertex 274
property float x
property float y
property float z
property uchar red
property uchar green
property uchar blue
end_header
0.103867642581 0.108433023095 0.223529607058 255 0 0
0.108821243048 0.107234917581 0.223637953401 255 0 0
0.124464578927 0.106901824474 0.233718276024 255 0 0
0.123819857836 0.106200315058 0.234427675605 255 0 0
0.0741916596889 0.107047438622 0.214603602886 255 0 0
0.0731719657779 0.108802258968 0.214755058289 255 0 0
-0.173067167401 0.101268142462 0.089893348515 255 0 0
0.0853431895375 0.0985462144017 0.16349837184 255 0 0
-0.0898787975311 0.109744548798 0.223887845874 255 0 0
-0.0933009907603 0.110235378146 0.224143519998 255 0 0
-0.00561626860872 0.107138477266 0.219140067697 255 0 0
-0.00646803015843 0.109377250075 0.219204053283 255 0 0
-0.249655529857 -0.102989323437 -0.340270936489 255 0 0
-0.0648400560021 0.109122991562 0.216273799539 255 0 0
0.174614861608 0.102531984448 0.089881002903 255 0 0
0.176211163402 0.102082692087 0.0444952584803 255 0 0
0.178382888436 0.101688846946 0.0452720299363 255 0 0
0.176059693098 0.102225750685 0.0900260806084 255 0 0
0.177853524685 0.102228015661 0.0898114293814 255 0 0
0.0738535672426 0.107116132975 0.209520712495 255 0 0
0.111538134515 0.105609260499 -0.173220664263 255 0 0
0.069055095315 0.106173172593 -0.174749270082 255 0 0
-0.0455253534019 0.109562844038 -0.125070244074 255 0 0
0.0666599199176 0.109304785728 0.220521971583 255 0 0
-0.0220397803932 0.108295813203 -0.147683054209 255 0 0
-0.0263363923877 0.108029261231 -0.147627353668 255 0 0
0.0858464241028 0.108751975 0.235396057367 255 0 0
0.0896524712443 0.113146528602 -0.202785789967 255 0 0
0.0337159968913 0.106490075588 -0.145456969738 255 0 0
0.0680463910103 0.108000092208 0.22088997066 255 0 0
0.0298197120428 0.108005046844 -0.145950213075 255 0 0
0.0871564820409 0.1077510342 0.23536208272 255 0 0
0.262162804604 -0.112203881145 0.123509414494 255 0 0
-0.0372729934752 0.109267376363 -0.131903335452 255 0 0
0.0241038128734 0.108196258545 -0.146014213562 255 0 0
0.0857673510909 0.112444207072 -0.202840298414 255 0 0
0.0950747206807 0.106515295804 0.210928291082 255 0 0
0.0933874025941 0.112731844187 -0.202715411782 255 0 0
-0.00463501410559 0.108680918813 0.222426950932 255 0 0
0.0879318639636 0.108410179615 0.210932374001 255 0 0
0.137405276299 0.106738038361 0.224178493023 255 0 0
0.066944308579 0.108262173831 0.210243687034 255 0 0
0.136161103845 0.106318622828 0.224509775639 255 0 0
0.236413896084 -0.111729502678 0.287203133106 255 0 0
0.0938954055309 0.107572846115 0.209688529372 255 0 0
0.0836566835642 0.106370948255 0.201220214367 255 0 0
0.0823944658041 0.106776736677 0.201688170433 255 0 0
-0.212315306067 -0.104859486222 0.287229686975 255 0 0
0.0656166821718 0.108267627656 0.209827467799 255 0 0
0.0501902736723 0.105981573462 -0.129205942154 255 0 0
0.0493665523827 0.106589026749 -0.12832288444 255 0 0
-0.244070440531 -0.103002667427 0.282993853092 255 0 0
-0.266613095999 -0.104839295149 0.0164911746979 255 0 0
0.261084347963 -0.111591592431 -0.0260515548289 255 0 0
0.0971039161086 0.107767321169 0.209617361426 255 0 0
-0.265547841787 -0.103899523616 0.0733166560531 255 0 0
-0.263333261013 -0.10555011034 -0.104449220002 255 0 0
0.0474632829428 0.106378383934 -0.132320716977 255 0 0
0.234579533339 -0.110493771732 0.282851308584 255 0 0
0.175779625773 0.10241227597 -0.112505219877 255 0 0
0.238700911403 -0.106027014554 0.281467735767 255 0 0
0.00223994813859 0.107811272144 0.216019570827 255 0 0
-0.224394291639 -0.105150282383 0.286694049835 255 0 0
0.175779908895 0.10236107558 -0.110078260303 255 0 0
-0.0408534966409 0.109653949738 0.215882897377 255 0 0
-0.264073580503 -0.104619406164 -0.0782616361976 255 0 0
0.218662410975 -0.112902514637 0.287198603153 255 0 0
0.262162536383 -0.111435353756 0.106462337077 255 0 0
-0.0414591357112 0.108539327979 0.237917527556 255 0 0
0.175009995699 0.101147815585 -0.0608559064567 255 0 0
-0.266142010689 -0.0307197254151 -0.35033467412 255 0 0
-0.0754475370049 0.10671299696 -0.12484587729 255 0 0
-0.213927835226 0.153474509716 -0.0518026463687 255 0 0
0.114262200892 0.106701605022 0.216903463006 255 0 0
0.0742335319519 0.10894446075 0.228789463639 255 0 0
-0.265596866608 -0.104648791254 -0.0375655926764 255 0 0
-0.0442119017243 0.109366737306 -0.162802681327 255 0 0
0.229006662965 0.103019990027 0.281544417143 255 0 0
-0.212377920747 0.153538912535 -0.0530967116356 255 0 0
-0.0622544661164 0.108290888369 0.231527999043 255 0 0
0.127834141254 0.106552354991 0.216881334782 255 0 0
-0.0616756230593 0.109147176147 0.231446504593 255 0 0
-0.243011057377 -0.105724126101 -0.344795405865 255 0 0
-0.0428469963372 0.108439922333 -0.161425337195 255 0 0
-0.0632847324014 0.109517611563 0.231421142817 255 0 0
-0.258741140366 -0.103947162628 -0.336098819971 255 0 0
-0.0142065407708 0.107618145645 0.216816976666 255 0 0
-0.0150018082932 0.108976624906 0.21662299335 255 0 0
-0.214524582028 0.152662709355 -0.0518509708345 255 0 0
-0.262331306934 -0.1059178859 -0.208434209228 255 0 0
-0.0185059364885 0.107579961419 0.20944160223 255 0 0
0.110666446388 0.103678829968 -0.115123331547 255 0 0
-0.0197246205062 0.108715608716 0.209294438362 255 0 0
0.241823777556 -0.108850434422 -0.343149513006 255 0 0
-0.209543973207 0.147122398019 -0.0386107191443 255 0 0
-0.0421071201563 0.109063535929 -0.162279784679 255 0 0
-0.259711772203 -0.104483485222 -0.205297783017 255 0 0
0.259677857161 -0.110106416047 -0.340390771627 255 0 0
-0.262119442225 -0.106155447662 -0.197903171182 255 0 0
-0.262439340353 -0.105200901628 -0.231124252081 255 0 0
0.188324838877 0.103183016181 -0.023964645341 255 0 0
-0.20945726335 0.151813089848 -0.0533008798957 255 0 0
-0.259654074907 -0.103908017278 -0.221037760377 255 0 0
-0.262989044189 -0.106058165431 -0.0837901234627 255 0 0
0.106795802712 0.107227802277 0.249262735248 255 0 0
-0.263063013554 -0.105994388461 -0.218732714653 255 0 0
0.128171533346 0.106336019933 0.22239305079 255 0 0
0.0320075526834 0.109052240849 0.232191696763 255 0 0
0.0756586715579 0.107813149691 0.229015335441 255 0 0
-0.262878984213 -0.105827637017 -0.22043082118 255 0 0
0.105112068355 0.106938965619 0.251543343067 255 0 0
-0.237047478557 -0.0320062935352 -0.342297673225 255 0 0
-0.244409844279 -0.0269860047847 -0.350582271814 255 0 0
-0.265221297741 -0.105535447598 -0.137187808752 255 0 0
-0.262713819742 -0.105211548507 -0.169600784779 255 0 0
0.105827733874 0.106422014534 0.249619245529 255 0 0
0.0321597158909 0.107603892684 0.232292369008 255 0 0
-0.262521952391 -0.105373382568 -0.227524548769 255 0 0
0.261397272348 -0.110787793994 -0.0478193797171 255 0 0
0.192910373211 0.104767039418 -0.019504936412 255 0 0
-0.0498082712293 0.108355678618 0.232189670205 255 0 0
0.260268747807 -0.112511150539 0.253833025694 255 0 0
0.117016576231 0.102159120142 -0.115713112056 255 0 0
-0.207744732499 0.147971242666 -0.0394433364272 255 0 0
0.260204553604 -0.111149676144 0.174588337541 255 0 0
-0.0313738137484 0.108034290373 -0.124863661826 255 0 0
-0.255855917931 -0.098386734724 0.276676476002 255 0 0
-0.262742131948 -0.105644211173 -0.223420381546 255 0 0
-0.0304415207356 0.109385967255 -0.125426337123 255 0 0
-0.0569085218012 0.109150908887 0.219381481409 255 0 0
-0.0284509807825 0.108657211065 -0.125588729978 255 0 0
-0.264333486557 -0.103534258902 -0.311987072229 255 0 0
-0.26548859477 -0.103973217309 0.0764730721712 255 0 0
-0.0305637381971 0.108344137669 0.232323303819 255 0 0
-0.261298447847 -0.0301061850041 -0.351186454296 255 0 0
-0.0692018866539 0.108957357705 0.212350308895 255 0 0
-0.0295075271279 0.108851619065 0.232301726937 255 0 0
0.110222667456 0.106704711914 0.209348261356 255 0 0
-0.252694398165 -0.104712545872 -0.34218865633 255 0 0
0.2614402771 -0.11188338697 0.225174888968 255 0 0
-0.262074202299 -0.105519630015 -0.347433686256 255 0 0
-0.252736866474 -0.0965513959527 0.276707351208 255 0 0
0.260276049376 -0.111296884716 0.226801142097 255 0 0
-0.259445637465 -0.103090189397 -0.241243496537 255 0 0
0.261904537678 -0.111660338938 0.0150066874921 255 0 0
-0.263811022043 -0.10531835258 -0.251185536385 255 0 0
-0.182733491063 0.107320174575 0.0495108105242 255 0 0
0.0618735104799 0.108861207962 0.21741142869 255 0 0
0.259522289038 -0.111127264798 0.182669773698 255 0 0
-0.0756076574326 0.1096804142 0.213525816798 255 0 0
-0.1830085814 0.108657993376 0.0494349785149 255 0 0
0.225265413523 -0.112070977688 0.285418063402 255 0 0
-0.26364454627 -0.105271965265 -0.315596282482 255 0 0
0.233266174793 -0.110422335565 -0.350212544203 255 0 0
-0.259224087 -0.104355096817 -0.266594737768 255 0 0
-0.26477381587 -0.105959758162 -0.183107271791 255 0 0
-0.0762682929635 0.108403258026 -0.167527556419 255 0 0
-0.230037793517 -0.0254288725555 -0.347612351179 255 0 0
-0.25946110487 -0.103512242436 -0.295151293278 255 0 0
0.0144047662616 0.107030808926 0.279329925776 255 0 0
-0.233456000686 -0.105904012918 0.28534206748 255 0 0
-0.261564582586 -0.103964924812 0.275211691856 255 0 0
0.0965574532747 0.10603646934 -0.170002058148 255 0 0
-0.00814189296216 0.109155640006 0.221153020859 255 0 0
0.115985535085 0.107794672251 0.232308104634 255 0 0
-0.034413728863 0.107449114323 0.20938898623 255 0 0
-0.261442422867 -0.103558287024 0.00183587090578 255 0 0
-0.0594441816211 0.107873603702 0.213114216924 255 0 0
-0.0735061168671 0.108909137547 0.213614687324 255 0 0
0.0406507663429 0.107736438513 0.216452211142 255 0 0
0.0974181070924 0.106716565788 -0.169785574079 255 0 0
-0.265498876572 -0.106135725975 -0.0585781261325 255 0 0
0.0459256544709 0.107830442488 0.238083913922 255 0 0
-0.267024189234 -0.106387704611 -0.20918160677 255 0 0
-0.267264842987 -0.102828644216 0.210537910461 255 0 0
-0.067931599915 0.108841016889 0.217207685113 255 0 0
-0.259065747261 -0.103552542627 -0.287213802338 255 0 0
0.0834462791681 0.106166280806 -0.125989183784 255 0 0
-0.264953076839 -0.105260759592 -0.272405385971 255 0 0
-0.0349368490279 0.10883000493 0.209269225597 255 0 0
0.017331160605 0.107857301831 0.209310546517 255 0 0
-0.265688210726 -0.103889018297 0.0706091076136 255 0 0
-0.2680336833 -0.104356765747 0.241799265146 255 0 0
-0.259668588638 -0.105312563479 -0.180459424853 255 0 0
-0.265383720398 -0.105066306889 -0.285427689552 255 0 0
-0.260910391808 -0.105227582157 -0.00644755037501 255 0 0
-0.260088503361 0.10023984313 -0.329450339079 255 0 0
-0.237598776817 -0.103618167341 0.279819697142 255 0 0
-0.261098831892 -0.105153076351 -0.0777495726943 255 0 0
-0.24808973074 -0.102183200419 -0.336905747652 255 0 0
-0.265047311783 -0.105051033199 -0.0164677556604 255 0 0
0.0204210691154 0.107837855816 -0.123757883906 255 0 0
0.0165964178741 0.105252556503 0.280762791634 255 0 0
0.254236996174 -0.107092253864 -0.338852524757 255 0 0
0.0647748932242 0.107949391007 0.213303491473 255 0 0
0.257336616516 -0.0325897336006 -0.286152839661 255 0 0
0.24413575232 -0.109839446843 -0.350276887417 255 0 0
-0.268099099398 -0.104275755584 0.238324761391 255 0 0
-0.260881006718 -0.103041887283 0.0623449608684 255 0 0
-0.263753175735 -0.104533605278 -0.338918149471 255 0 0
0.254084736109 -0.105444662273 0.274501085281 255 0 0
-0.016577033326 0.108603969216 0.233254447579 255 0 0
0.259399622679 0.1008085832 0.267351388931 255 0 0
-0.267418980598 -0.105957239866 -0.162539213896 255 0 0
-0.261922478676 -0.106449052691 -0.185997471213 255 0 0
0.102734550834 0.105544991791 -0.173294335604 255 0 0
0.26085793972 -0.11075130105 0.257225990295 255 0 0
-0.266818791628 -0.10410054028 0.255143493414 255 0 0
-0.26019692421 -0.103603251278 0.0244585089386 255 0 0
-0.258554905653 -0.104876756668 0.28731316328 255 0 0
0.0299539193511 0.106938138604 -0.123967178166 255 0 0
0.0633875131607 0.108577080071 0.216821804643 255 0 0
-0.263249248266 -0.104882739484 -0.122410714626 255 0 0
-0.017349857837 0.109289035201 0.233268454671 255 0 0
-0.0786297768354 0.10992321372 0.236194938421 255 0 0
0.0286554805934 0.107853479683 -0.124063432217 255 0 0
0.0161113031209 0.109133020043 0.217262670398 255 0 0
0.013691034168 0.10677819699 -0.165164619684 255 0 0
-0.267969071865 -0.104878671467 -0.335127860308 255 0 0
-0.268231272697 -0.105718784034 -0.051548846066 255 0 0
-0.260981023312 -0.103219762444 0.0658038929105 255 0 0
-0.267600268126 -0.103145964444 0.0821981355548 255 0 0
-0.258910775185 -0.104556620121 -0.255375355482 255 0 0
0.261413037777 -0.111098244786 0.00871577858925 255 0 0
-0.262940824032 -0.105900384486 -0.0875513479114 255 0 0
0.0172479115427 0.107740722597 0.217368394136 255 0 0
0.253785163164 -0.0938489064574 0.270230412483 255 0 0
-0.263968974352 -0.105592407286 -0.0481880567968 255 0 0
-0.091202840209 0.117488905787 -0.202523157001 255 0 0
-0.266470968723 -0.105349719524 -0.0321508571506 255 0 0
-0.265618115664 -0.10344710201 0.0589632019401 255 0 0
-0.266298055649 -0.105945423245 -0.0777869522572 255 0 0
-0.262018054724 -0.102327093482 0.153931006789 255 0 0
0.0118174087256 0.108877584338 0.232340842485 255 0 0
-0.0814776644111 0.108774133027 0.215334638953 255 0 0
-0.25856000185 -0.102579794824 -0.306833922863 255 0 0
0.0871343687177 0.108010627329 0.229880809784 255 0 0
-0.26281324029 -0.102045819163 0.198057413101 255 0 0
0.260040521622 -0.111144848168 -0.0726840868592 255 0 0
0.255550980568 -0.0414929948747 0.232901260257 255 0 0
0.258082211018 -0.109290629625 -0.338427126408 255 0 0
0.261534839869 -0.112366363406 0.284547030926 255 0 0
-0.259161233902 -0.104958534241 -0.247978314757 255 0 0
-0.027657750994 0.108346819878 0.216067761183 255 0 0
-0.258278489113 -0.103923395276 -0.328872084618 255 0 0
-0.261604309082 -0.102932371199 0.046783093363 255 0 0
-0.266080975533 -0.105130180717 -0.09776930511 255 0 0
-0.238479584455 -0.0328890010715 -0.34114870429 255 0 0
-0.266386568546 -0.105367720127 -0.0960942879319 255 0 0
-0.0401677079499 0.108392760158 0.22698149085 255 0 0
0.0651737526059 0.107400178909 0.231550261378 255 0 0
-0.267011731863 -0.105292111635 -0.108991682529 255 0 0
0.0639992952347 0.107510127127 0.232801139355 255 0 0
-0.266777604818 -0.103601947427 0.0436204522848 255 0 0
-0.260639280081 -0.104509912431 -0.0226685795933 255 0 0
0.120726615191 0.107537329197 0.208536446095 255 0 0
-0.260300695896 -0.104327775538 -0.153991624713 255 0 0
-0.00613736687228 0.109199561179 -0.165441229939 255 0 0
-0.0593219473958 0.108482502401 0.216599047184 255 0 0
-0.2120898664 0.113958992064 -0.0775843039155 255 0 0
-0.261440604925 -0.103053838015 0.0531152635813 255 0 0
0.0661556348205 0.108603708446 0.231271609664 255 0 0
-0.260382711887 -0.102819949389 -0.00148980866652 255 0 0
0.0627996921539 0.108877055347 0.232801675797 255 0 0
-0.2668620646 -0.102613173425 0.145256757736 255 0 0
0.0116317793727 0.108309678733 -0.165025949478 255 0 0
-0.263790279627 -0.103910662234 -0.291749507189 255 0 0
-0.0946668908 0.117306485772 -0.202509641647 255 0 0
-0.264630764723 -0.105231180787 -0.00410255929455 255 0 0
-0.0700370073318 0.108380898833 0.214814513922 255 0 0
-0.267610251904 -0.103772118688 -0.295240819454 255 0 0
0.052495367825 0.106892667711 -0.157156139612 255 0 0
-0.00450633093715 0.108116559684 -0.165434792638 255 0 0
0.261883735657 0.082229450345 0.27447450161 255 0 0
