ply
format ascii 1.0
comment https://github.com/EricCJoyce
element vertex 65
property float x
property float y
property float z
property uchar red
property uchar green
property uchar blue
end_header
0.0738103315234 0.108139142394 0.214780911803 255 0 0
-0.173067167401 0.101268142462 0.089893348515 255 0 0
0.0853431895375 0.0985462144017 0.16349837184 255 0 0
-0.0936580225825 0.110269896686 0.224317520857 255 0 0
-0.00564133562148 0.109260909259 0.219031020999 255 0 0
0.176211163402 0.102082692087 0.0444952584803 255 0 0
0.176059693098 0.102225750685 0.0900260806084 255 0 0
0.0696867108345 0.105997249484 -0.174663215876 255 0 0
0.11094327271 0.106277793646 -0.173047691584 255 0 0
0.0676283612847 0.107830323279 0.221248105168 255 0 0
-0.0449608452618 0.108951181173 -0.125567004085 255 0 0
-0.0263363923877 0.108029261231 -0.147627353668 255 0 0
0.0896524712443 0.113146528602 -0.202785789967 255 0 0
0.0337159968913 0.106490075588 -0.145456969738 255 0 0
-0.0372729934752 0.109267376363 -0.131903335452 255 0 0
0.0950747206807 0.106515295804 0.210928291082 255 0 0
0.0879318639636 0.108410179615 0.210932374001 255 0 0
0.0878766700625 0.107455641031 0.234926864505 255 0 0
0.066944308579 0.108262173831 0.210243687034 255 0 0
0.136161103845 0.106318622828 0.224509775639 255 0 0
0.0823944658041 0.106776736677 0.201688170433 255 0 0
0.0656166821718 0.108267627656 0.209827467799 255 0 0
0.0501902736723 0.105981573462 -0.129205942154 255 0 0
-0.0400500707328 0.109091848135 0.216051161289 255 0 0
0.175779908895 0.10236107558 -0.110078260303 255 0 0
-0.0410635396838 0.108221724629 0.237721174955 255 0 0
-0.0754475370049 0.10671299696 -0.12484587729 255 0 0
-0.213927835226 0.153474509716 -0.0518026463687 255 0 0
-0.212377920747 0.153538912535 -0.0530967116356 255 0 0
-0.0622544661164 0.108290888369 0.231527999043 255 0 0
0.127834141254 0.106552354991 0.216881334782 255 0 0
-0.0428469963372 0.108439922333 -0.161425337195 255 0 0
-0.0185059364885 0.107579961419 0.20944160223 255 0 0
-0.209543973207 0.147122398019 -0.0386107191443 255 0 0
-0.014213219285 0.109277442098 0.216813653708 255 0 0
0.128171533346 0.106336019933 0.22239305079 255 0 0
0.0320075526834 0.109052240849 0.232191696763 255 0 0
0.105112068355 0.106938965619 0.251543343067 255 0 0
-0.0300818122923 0.109068706632 -0.125395461917 255 0 0
0.0759641453624 0.10760115087 0.22876368463 255 0 0
0.192910373211 0.104767039418 -0.019504936412 255 0 0
0.110222667456 0.106704711914 0.209348261356 255 0 0
0.0177452377975 0.10788962245 0.209272786975 255 0 0
-0.1830085814 0.108657993376 0.0494349785149 255 0 0
0.0409332513809 0.107798397541 0.216440632939 255 0 0
-0.0762682929635 0.108403258026 -0.167527556419 255 0 0
0.0144047662616 0.107030808926 0.279329925776 255 0 0
0.0965574532747 0.10603646934 -0.170002058148 255 0 0
-0.00814189296216 0.109155640006 0.221153020859 255 0 0
0.115985535085 0.107794672251 0.232308104634 255 0 0
-0.034413728863 0.107449114323 0.20938898623 255 0 0
-0.0735061168671 0.108909137547 0.213614687324 255 0 0
0.0634621754289 0.107945196331 0.217483669519 255 0 0
-0.016577033326 0.108603969216 0.233254447579 255 0 0
0.0303703695536 0.107562460005 -0.12396954 255 0 0
-0.0786297768354 0.10992321372 0.236194938421 255 0 0
-0.0272216312587 0.109193757176 0.216184273362 255 0 0
-0.091202840209 0.117488905787 -0.202523157001 255 0 0
0.0134908808395 0.107101753354 -0.16509115696 255 0 0
0.0118174087256 0.108877584338 0.232340842485 255 0 0
-0.0814776644111 0.108774133027 0.215334638953 255 0 0
-0.00596846872941 0.108905695379 -0.165388509631 255 0 0
0.063543587923 0.107329048216 0.232996463776 255 0 0
0.0651737526059 0.107400178909 0.231550261378 255 0 0
0.103050090373 0.106219910085 -0.173250958323 255 0 0
