ply
format ascii 1.0
comment https://github.com/EricCJoyce
element vertex 87
property float x
property float y
property float z
property uchar red
property uchar green
property uchar blue
end_header
0.0440003313124 0.174141213298 0.129160955548 255 0 0
-0.0116526940838 0.174336537719 0.157675892115 255 0 0
0.100817628205 0.0679991617799 0.21818305552 255 0 0
-0.0135175166652 0.174144789577 0.116709716618 255 0 0
0.0916537046432 0.0675822719932 0.2200165838 255 0 0
0.150574415922 0.068628847599 0.21778473258 255 0 0
0.0964996665716 0.0675958171487 0.236368373036 255 0 0
-0.0289219599217 0.173750802875 0.101012162864 255 0 0
0.104248911142 0.067803606391 0.236931368709 255 0 0
-0.00200941809453 0.174441084266 0.160625547171 255 0 0
0.0156785603613 0.174271121621 0.157017678022 255 0 0
0.0630367174745 0.0675652101636 0.221282273531 255 0 0
0.0549974143505 0.179296121001 0.101895205677 255 0 0
0.0164116248488 0.174534291029 0.096314907074 255 0 0
0.0563942939043 0.179867714643 0.137097671628 255 0 0
0.123979397118 0.0684243738651 0.222725585103 255 0 0
0.0345236361027 0.174134686589 0.124857276678 255 0 0
0.111206375062 0.0680067539215 0.237194523215 255 0 0
0.133138924837 0.0687150806189 0.222732424736 255 0 0
0.0428613983095 0.17515732348 0.142395317554 255 0 0
0.0686576142907 0.0671969801188 0.214968115091 255 0 0
-0.0148983607069 0.201037764549 0.0522869303823 255 0 0
0.0663071349263 0.0670536980033 0.215969204903 255 0 0
-0.0383864976466 0.173969343305 0.107727766037 255 0 0
0.0468953549862 0.168203100562 0.117110848427 255 0 0
0.0506565757096 0.171518206596 0.127650633454 255 0 0
-0.0432544313371 0.173698991537 0.138016119599 255 0 0
0.0774949789047 0.0670959502459 0.220545440912 255 0 0
0.129486486316 0.0682378262281 0.228005766869 255 0 0
0.12766507268 0.068040817976 0.215736865997 255 0 0
0.0164978429675 0.171110868454 0.13204279542 255 0 0
-0.0078783435747 0.174787133932 0.0956479161978 255 0 0
0.013974792324 0.200241431594 0.0630170106888 255 0 0
0.115374021232 0.0676107928157 0.216310635209 255 0 0
0.0351038351655 0.173756569624 0.144947856665 255 0 0
0.0248742792755 0.200387001038 0.0659509673715 255 0 0
0.0407434552908 0.175668746233 0.091044344008 255 0 0
0.0743142291903 0.0671147927642 0.218793928623 255 0 0
0.033589925617 0.194654047489 0.0679069757462 255 0 0
0.0198120437562 0.174296483397 0.115665905178 255 0 0
-0.0194342546165 0.184940263629 0.0850315019488 255 0 0
0.0254376232624 0.0779277533293 0.0382180064917 255 0 0
0.11734329164 0.0677476078272 0.215226963162 255 0 0
0.0375612452626 0.175142943859 0.0972447767854 255 0 0
0.0693809166551 0.190620362759 0.100519299507 255 0 0
0.0226224642247 0.198835507035 0.0732599943876 255 0 0
-0.0268766954541 0.175590291619 0.0894019007683 255 0 0
-0.00615820521489 0.076258867979 0.0336202159524 255 0 0
0.017583841458 0.200092792511 0.0668627545238 255 0 0
0.050424400717 0.15440556407 0.120015583932 255 0 0
0.0273232795298 0.0678014084697 0.0153543306515 255 0 0
0.112121447921 0.0682281777263 0.234386131167 255 0 0
-0.0189958382398 0.174471229315 0.109400227666 255 0 0
0.0351585373282 0.186492964625 0.187801301479 255 0 0
0.0579223483801 0.190630927682 0.0807460322976 255 0 0
-0.0143761010841 0.200081571937 0.0664913877845 255 0 0
0.0311678722501 0.174435928464 0.104600869119 255 0 0
0.0114429648966 0.177030205727 0.0861638858914 255 0 0
-0.0634519904852 0.08298946172 -0.234254196286 255 0 0
-0.0408085696399 0.174855723977 0.0936607420444 255 0 0
-0.0579373687506 0.177232772112 0.122501276433 255 0 0
0.068788126111 0.0669298171997 0.218929752707 255 0 0
0.0207709316164 0.174877852201 0.107621833682 255 0 0
0.038174033165 0.17460167408 0.105432666838 255 0 0
-0.0102247456089 0.173600137234 0.154791429639 255 0 0
-0.0499403625727 0.175654992461 0.0920514091849 255 0 0
0.0846092402935 0.0748009085655 0.154242217541 255 0 0
0.148847028613 0.0689354911447 0.212505444884 255 0 0
-0.0077189351432 0.0698570609093 -0.259729534388 255 0 0
0.125845268369 0.0681634843349 0.213100969791 255 0 0
0.0781853348017 0.184988111258 0.129646390676 255 0 0
-0.0465862378478 0.190606638789 0.0754896625876 255 0 0
0.130160108209 0.068683296442 0.22181378305 255 0 0
0.066427513957 0.185417607427 0.160817623138 255 0 0
0.144745454192 0.0681618526578 0.207597821951 255 0 0
-0.013913365081 0.176049888134 0.0887084081769 255 0 0
0.0724030658603 0.191352754831 0.119828008115 255 0 0
0.0700671225786 0.171658039093 0.163219347596 255 0 0
0.089755654335 0.0697979554534 0.158182442188 255 0 0
0.00641971314326 0.196010529995 0.0640881881118 255 0 0
-0.0602073557675 0.181554466486 0.129843816161 255 0 0
0.10249170661 0.0674592033029 0.212544292212 255 0 0
0.000923155224882 0.177486240864 0.088922098279 255 0 0
0.10597089678 0.0685128495097 0.241674587131 255 0 0
0.0626428201795 0.0671831741929 0.212377727032 255 0 0
0.10667128861 0.0679512917995 0.23589925468 255 0 0
0.0513621233404 0.0694651082158 0.202421307564 255 0 0
