ply
format ascii 1.0
comment https://github.com/EricCJoyce
element vertex 225
property float x
property float y
property float z
property uchar red
property uchar green
property uchar blue
end_header
0.0440003313124 0.174141213298 0.129160955548 255 0 0
-0.0106069874018 0.174062147737 0.157748371363 255 0 0
-0.0124991964549 0.174542918801 0.157676488161 255 0 0
0.0431272424757 0.174925655127 0.115772984922 255 0 0
0.100927948952 0.0674914717674 0.218207761645 255 0 0
-0.0130330557004 0.174507811666 0.116628915071 255 0 0
-0.0116705941036 0.174322098494 0.116617254913 255 0 0
0.102278761566 0.067438647151 0.224171280861 255 0 0
0.0916537046432 0.0675822719932 0.2200165838 255 0 0
0.152567714453 0.0685383230448 0.219499513507 255 0 0
0.150574415922 0.068628847599 0.21778473258 255 0 0
0.0965105742216 0.0674151480198 0.236429899931 255 0 0
0.063559256494 0.0669847130775 0.220637664199 255 0 0
0.0929929763079 0.0674758031964 0.215959489346 255 0 0
-0.0029285736382 0.174542665482 0.160704135895 255 0 0
-0.0289219599217 0.173750802875 0.101012162864 255 0 0
0.0832795128226 0.121174521744 0.12219530344 255 0 0
0.0541907586157 0.180674269795 0.0972272232175 255 0 0
0.0162645354867 0.174391105771 0.0969281122088 255 0 0
0.0156785603613 0.174271121621 0.157017678022 255 0 0
-0.0197294447571 0.170609101653 0.135363787413 255 0 0
0.1385448277 0.0680775493383 0.222464412451 255 0 0
0.0630367174745 0.0675652101636 0.221282273531 255 0 0
0.0174117200077 0.17359700799 0.157087564468 255 0 0
-0.0176894813776 0.170424863696 0.135394588113 255 0 0
0.106188803911 0.0679054260254 0.236345052719 255 0 0
-0.0157670434564 0.170494988561 0.134973615408 255 0 0
0.0549974143505 0.179296121001 0.101895205677 255 0 0
0.0563942939043 0.179867714643 0.137097671628 255 0 0
0.103936798871 0.0680169910192 0.236995071173 255 0 0
0.111206375062 0.0680067539215 0.237194523215 255 0 0
0.133138924837 0.0687150806189 0.222732424736 255 0 0
-0.0373720452189 0.173834592104 0.106560908258 255 0 0
0.124325267971 0.0679446086287 0.222404509783 255 0 0
-0.0261929538101 0.17132230103 0.127554535866 255 0 0
0.111332304776 0.0675634220243 0.216753438115 255 0 0
0.0336581431329 0.174247249961 0.124457143247 255 0 0
-0.0257644895464 0.170483455062 0.146124348044 255 0 0
0.0615518838167 0.15188574791 0.114939585328 255 0 0
0.0523621812463 0.174583688378 0.128704607487 255 0 0
0.0428613983095 0.17515732348 0.142395317554 255 0 0
0.0234145112336 0.175097599626 0.101402305067 255 0 0
0.0666608735919 0.0671886876225 0.215842574835 255 0 0
-0.0148983607069 0.201037764549 0.0522869303823 255 0 0
0.0828423798084 0.125194817781 0.127153649926 255 0 0
0.0506682433188 0.174764677882 0.138629183173 255 0 0
-0.0383864976466 0.173969343305 0.107727766037 255 0 0
0.127731755376 0.0677332803607 0.215491637588 255 0 0
-0.0453866161406 0.173853233457 0.136695966125 255 0 0
-0.0355487279594 0.173397704959 0.107229188085 255 0 0
-0.0427702441812 0.173928916454 0.137688457966 255 0 0
0.0468953549862 0.168203100562 0.117110848427 255 0 0
-0.0141401672736 0.200347363949 0.0525909438729 255 0 0
-0.130363345146 -0.0857643336058 0.256449311972 255 0 0
0.0685718283057 0.0673406049609 0.214922040701 255 0 0
0.0506565757096 0.171518206596 0.127650633454 255 0 0
0.0359188430011 0.178643271327 0.168142065406 255 0 0
-0.016237353906 0.201971635222 0.0515413880348 255 0 0
-0.0043128002435 0.183009669185 0.0861581340432 255 0 0
0.133243709803 0.068838275969 0.220757082105 255 0 0
-0.0367010012269 0.173413544893 0.156157359481 255 0 0
0.0707232281566 0.166437193751 0.120647624135 255 0 0
0.0774949789047 0.0670959502459 0.220545440912 255 0 0
0.0164978429675 0.171110868454 0.13204279542 255 0 0
-0.0078783435747 0.174787133932 0.0956479161978 255 0 0
0.0134614063427 0.200145676732 0.062765583396 255 0 0
0.10716252774 0.0674540102482 0.233615323901 255 0 0
-0.0036449295003 0.18562361598 0.196891382337 255 0 0
0.0513794347644 0.187100097537 0.0864801257849 255 0 0
0.00840586051345 0.186457633972 0.0838191583753 255 0 0
0.129348605871 0.068245716393 0.228247523308 255 0 0
0.115374021232 0.0676107928157 0.216310635209 255 0 0
-0.139648705721 -0.0855278298259 0.252491354942 255 0 0
0.0392640084028 0.18629167974 0.186092764139 255 0 0
0.0165936276317 0.199827805161 0.0617451742291 255 0 0
-0.0516536645591 0.143988505006 0.183098271489 255 0 0
0.0609261058271 0.0671756565571 0.227714285254 255 0 0
0.0208826307207 0.174684420228 0.100459054112 255 0 0
0.0349027551711 0.173696786165 0.145363628864 255 0 0
-0.0471848398447 0.144747674465 0.0513392575085 255 0 0
-0.154799565673 0.0106502817944 -0.214800164104 255 0 0
0.0214541908354 0.191251799464 0.0816415175796 255 0 0
0.117312416434 0.0677882879972 0.215327143669 255 0 0
0.0341003760695 0.194464877248 0.0672150477767 255 0 0
0.0400842055678 0.175780892372 0.0905853062868 255 0 0
-0.147553816438 -0.0845565274358 0.232296511531 255 0 0
0.0253793429583 0.200353652239 0.0659495741129 255 0 0
0.0743142291903 0.0671147927642 0.218793928623 255 0 0
0.149823099375 0.0689046904445 0.219461023808 255 0 0
0.0338806435466 0.173283651471 0.145456641912 255 0 0
0.0691032186151 0.162708938122 0.127251267433 255 0 0
0.0262210145593 0.170943766832 0.142589718103 255 0 0
0.0698171555996 0.153479218483 0.116354912519 255 0 0
0.0417226031423 0.174039006233 0.0929441824555 255 0 0
-0.0435444936156 0.186313435435 0.085309818387 255 0 0
-0.0194342546165 0.184940263629 0.0850315019488 255 0 0
0.153223574162 0.0661899372935 -0.25240457058 255 0 0
0.0254376232624 0.0779277533293 0.0382180064917 255 0 0
-0.0224509481341 0.180955275893 0.0860301405191 255 0 0
0.0712134465575 0.163378626108 0.119206927717 255 0 0
0.0347969606519 0.125878080726 0.194322556257 255 0 0
-0.0138939395547 0.200324818492 0.0662205144763 255 0 0
0.0202935896814 0.171610608697 0.146614477038 255 0 0
-0.0686197057366 0.0792776867747 -0.234381198883 255 0 0
0.0283347200602 0.196841001511 0.0619099251926 255 0 0
0.0378939546645 0.174687758088 0.0969892442226 255 0 0
-0.0270588286221 0.174598410726 0.0892857164145 255 0 0
0.0201519783586 0.173955246806 0.115729853511 255 0 0
0.0728354528546 0.0669847354293 0.218831881881 255 0 0
0.0693809166551 0.190620362759 0.100519299507 255 0 0
0.0755735561252 0.0666352063417 0.218688845634 255 0 0
0.0226224642247 0.198835507035 0.0732599943876 255 0 0
0.0296386368573 0.0680861920118 0.0157860759646 255 0 0
0.155668750405 0.0181341264397 -0.236114740372 255 0 0
0.0178976580501 0.174682527781 0.09206828475 255 0 0
-0.0165172498673 0.183662474155 0.0853963643312 255 0 0
0.0132734403014 0.200225353241 0.065491579473 255 0 0
0.159930795431 0.0691509470344 0.248050630093 255 0 0
0.153719246387 0.0674976781011 0.104256466031 255 0 0
0.0898713245988 0.067651540041 0.221273764968 255 0 0
0.131457000971 0.0678177475929 0.217344149947 255 0 0
0.032659817487 0.194346770644 0.0700264200568 255 0 0
0.11238233 0.0679228976369 0.234427347779 255 0 0
-0.00615820521489 0.076258867979 0.0336202159524 255 0 0
-0.100803762674 0.0683290362358 0.204420611262 255 0 0
-0.0235755816102 0.19307090342 0.0473300851882 255 0 0
-0.154021456838 -0.0101897977293 0.230968654156 255 0 0
-0.048752002418 0.184087067842 0.0885121971369 255 0 0
-0.00847881939262 0.174282550812 0.108936086297 255 0 0
0.0283402912319 0.0680638104677 0.0153562417254 255 0 0
0.0177427902818 0.199953690171 0.0667505562305 255 0 0
0.050424400717 0.15440556407 0.120015583932 255 0 0
0.0273232795298 0.0678014084697 0.0153543306515 255 0 0
0.0883114933968 0.0708843544126 0.158422261477 255 0 0
-0.00955054163933 0.176225632429 0.090320803225 255 0 0
0.0306901652366 0.174828514457 0.104331940413 255 0 0
-0.145493477583 -0.0802345275879 0.238821148872 255 0 0
0.0278851557523 0.17765429616 0.0867299437523 255 0 0
-0.0189958382398 0.174471229315 0.109400227666 255 0 0
0.0512258112431 0.174989745021 0.139699786901 255 0 0
0.0351585373282 0.186492964625 0.187801301479 255 0 0
0.0267914552242 0.197024747729 0.0610556527972 255 0 0
0.0114429648966 0.177030205727 0.0861638858914 255 0 0
-0.0593269132078 0.178357705474 0.122864052653 255 0 0
0.0445576272905 0.174984380603 0.110702849925 255 0 0
-0.0634519904852 0.08298946172 -0.234254196286 255 0 0
-0.0408085696399 0.174855723977 0.0936607420444 255 0 0
0.0239345934242 0.191138207912 0.0532349310815 255 0 0
0.109223276377 0.0682986304164 0.22988794744 255 0 0
-0.0579373687506 0.177232772112 0.122501276433 255 0 0
0.147058784962 0.0675405710936 -0.24082942307 255 0 0
0.0228374172002 0.190488919616 0.0527183935046 255 0 0
0.0201327409595 0.17495700717 0.107776090503 255 0 0
0.0702721625566 0.153949633241 0.113393299282 255 0 0
0.068788126111 0.0669298171997 0.218929752707 255 0 0
-0.00151860783808 0.18624150753 0.0443725585938 255 0 0
-0.095746986568 0.0672229900956 0.0715194121003 255 0 0
-0.110029138625 0.0674907267094 -0.0728786811233 255 0 0
0.159554377198 0.041950199753 0.2430293262 255 0 0
-0.015479600057 0.200286582112 0.0674025118351 255 0 0
-0.144496560097 -0.0847059264779 0.228298008442 255 0 0
0.0676078051329 0.1876616925 0.156754210591 255 0 0
0.0452375933528 0.173865795135 0.114966079593 255 0 0
0.0787667483091 0.18462434411 0.131617382169 255 0 0
0.072684571147 0.189106464386 0.0999557673931 255 0 0
-0.0510431788862 0.186077445745 0.088165782392 255 0 0
0.0379562675953 0.174671724439 0.105394989252 255 0 0
0.11384203285 0.0681388825178 0.220811218023 255 0 0
0.124842748046 0.0687090754509 0.213071703911 255 0 0
0.0575087815523 0.190695986152 0.0806460008025 255 0 0
-0.0103893354535 0.173042446375 0.154915422201 255 0 0
-0.0558041259646 0.0816618576646 -0.234937906265 255 0 0
-0.0353064909577 0.188090085983 0.174471646547 255 0 0
-0.0499403625727 0.175654992461 0.0920514091849 255 0 0
0.0846092402935 0.0748009085655 0.154242217541 255 0 0
0.0774112045765 0.18488779664 0.137944594026 255 0 0
-0.0420611165464 0.188695639372 0.171343073249 255 0 0
0.120208889246 0.0681085661054 0.235154107213 255 0 0
0.0337633863091 0.187567979097 0.18788780272 255 0 0
-0.0493918731809 0.0709709376097 -0.223597556353 255 0 0
0.0762505382299 0.186992198229 0.13290707767 255 0 0
-0.00942291598767 0.0704414024949 -0.259315878153 255 0 0
-0.157208800316 -0.041741233319 -0.247572615743 255 0 0
0.144403293729 0.0682574808598 0.207415893674 255 0 0
0.141553983092 -0.0822932571173 0.190822064877 255 0 0
-0.039239898324 0.174700543284 0.0927377045155 255 0 0
0.152946740389 0.0682432278991 0.220744937658 255 0 0
0.149383082986 0.068551748991 0.212360560894 255 0 0
-0.117498479784 0.0677023380995 -0.22225189209 255 0 0
-0.0077189351432 0.0698570609093 -0.259729534388 255 0 0
0.0676233693957 0.185154557228 0.160525798798 255 0 0
0.163168370724 0.064168728888 0.246830403805 255 0 0
0.125817686319 0.0678248628974 0.213119879365 255 0 0
0.0781853348017 0.184988111258 0.129646390676 255 0 0
-0.0465862378478 0.190606638789 0.0754896625876 255 0 0
0.066427513957 0.185417607427 0.160817623138 255 0 0
0.13037584722 0.0680776536465 0.22171279788 255 0 0
-0.0455756671727 0.191059798002 0.0762192830443 255 0 0
0.070809982717 0.067106321454 0.216866418719 255 0 0
-0.013913365081 0.176049888134 0.0887084081769 255 0 0
0.0744223967195 0.0670747086406 0.221124440432 255 0 0
-0.0367928780615 0.191520750523 0.0693543553352 255 0 0
0.0724030658603 0.191352754831 0.119828008115 255 0 0
-0.0610215440392 0.187749773264 0.0981340780854 255 0 0
-0.137440025806 0.0680623054504 0.121788188815 255 0 0
0.0402264967561 0.187208071351 0.184276908636 255 0 0
0.0229001007974 0.196978136897 0.0781440213323 255 0 0
-0.0258264299482 0.174504965544 0.100202046335 255 0 0
0.0700671225786 0.171658039093 0.163219347596 255 0 0
0.089755654335 0.0697979554534 0.158182442188 255 0 0
-0.0560693591833 0.175039514899 0.113966993988 255 0 0
0.157983720303 -0.0120192281902 0.233085781336 255 0 0
-0.00669681094587 0.182266041636 0.198945075274 255 0 0
-0.0602073557675 0.181554466486 0.129843816161 255 0 0
0.10249170661 0.0674592033029 0.212544292212 255 0 0
0.000923155224882 0.177486240864 0.088922098279 255 0 0
0.0667934939265 0.0673481523991 0.212701678276 255 0 0
-0.00575185101479 0.182902395725 0.198494106531 255 0 0
0.10597089678 0.0685128495097 0.241674587131 255 0 0
0.0866149663925 0.0678143128753 -0.0293515939265 255 0 0
0.0626428201795 0.0671831741929 0.212377727032 255 0 0
0.151411488652 0.0687859430909 0.224584460258 255 0 0
0.00607641134411 0.196591421962 0.0645857974887 255 0 0
0.0513621233404 0.0694651082158 0.202421307564 255 0 0
-0.0557108670473 0.174250289798 0.122089937329 255 0 0
