ply
format ascii 1.0
comment https://github.com/EricCJoyce
element vertex 857
property float x
property float y
property float z
property uchar red
property uchar green
property uchar blue
end_header
0.280680030584 -0.0397812463343 0.382632136345 255 0 0
0.268875390291 -0.0552832558751 0.379565179348 255 0 0
-0.55983287096 -0.11039352417 -0.393637239933 255 0 0
-0.459192752838 -0.051824580878 0.879895567894 255 0 0
0.370665371418 -0.0239545423537 0.127127975225 255 0 0
0.369046598673 -0.0251708067954 -0.203583404422 255 0 0
0.0382155701518 -0.0389458090067 -0.994813978672 255 0 0
0.454595476389 -0.0317787863314 0.106422945857 255 0 0
0.360402286053 -0.0267571751028 0.0117576532066 255 0 0
-0.566799402237 -0.117714062333 -0.65848171711 255 0 0
0.466825425625 -0.0315917804837 -0.162693589926 255 0 0
-0.488646060228 -0.0353259257972 0.832755446434 255 0 0
0.454485833645 -0.0306466072798 0.104677021503 255 0 0
-0.201679870486 -0.0506485775113 0.774531781673 255 0 0
-0.0543913282454 -0.0414250083268 -1.11258423328 255 0 0
0.255358338356 -0.0576160363853 0.384965121746 255 0 0
0.267848074436 -0.0520658791065 0.224916473031 255 0 0
0.356767416 -0.0243747960776 -0.0204474553466 255 0 0
0.474873632193 -0.0312152486295 -0.136391967535 255 0 0
-0.118816778064 -0.0252884719521 0.567551136017 255 0 0
0.0210073348135 -0.0272853765637 0.614056646824 255 0 0
0.267486155033 -0.0518138557673 0.379540294409 255 0 0
0.281509876251 -0.0398600883782 0.384591311216 255 0 0
0.348383873701 -0.0290215499699 -0.248061180115 255 0 0
-0.455415934324 -0.0521259084344 0.972031891346 255 0 0
-0.567204475403 -0.113370060921 -0.657947838306 255 0 0
0.268386244774 -0.04948220402 0.225019797683 255 0 0
0.368845671415 -0.0234059505165 -0.204191356897 255 0 0
-0.467295378447 -0.046371512115 0.930941224098 255 0 0
0.338946133852 -0.0260043088347 -0.25235453248 255 0 0
0.371119737625 -0.0119230821729 -0.0485934466124 255 0 0
0.164366230369 -0.0682425424457 0.646136641502 255 0 0
-0.50890815258 -0.0365566574037 0.827954292297 255 0 0
0.470285385847 -0.0295273866504 -0.0884058400989 255 0 0
0.33855754137 -0.0251855459064 -0.258230775595 255 0 0
-0.492158293724 -0.0359654948115 0.789796471596 255 0 0
-0.493294715881 -0.0349891036749 0.789906322956 255 0 0
-0.46562024951 -0.0395472981036 0.851439476013 255 0 0
0.473546892405 -0.0316254533827 0.041689440608 255 0 0
-0.565548121929 -0.113298371434 -0.415646970272 255 0 0
0.341570079327 -0.0290856417269 -0.258176118135 255 0 0
0.0208841059357 -0.0290062595159 0.614269375801 255 0 0
0.279144763947 -0.0418627336621 -0.249073401093 255 0 0
-0.0431596525013 -0.0377964675426 -1.15791356564 255 0 0
0.282004207373 -0.0367624945939 0.232955738902 255 0 0
0.373162955046 -0.0129420394078 -0.0488309524953 255 0 0
0.0366307273507 -0.0613306164742 -1.10919702053 255 0 0
0.472113758326 -0.0343588516116 -0.153050243855 255 0 0
-0.463164269924 -0.0398467369378 0.810514032841 255 0 0
0.368568211794 -0.0118822529912 -0.0482931733131 255 0 0
0.400124073029 -0.0275577623397 0.121174432337 255 0 0
0.253418713808 -0.0535312481225 0.222493588924 255 0 0
-0.467787265778 -0.047908179462 0.931227862835 255 0 0
-0.458812892437 -0.054963875562 0.88008493185 255 0 0
0.267390817404 -0.0552713163197 0.380001097918 255 0 0
0.454413384199 -0.0318948552012 0.110380925238 255 0 0
-0.19073343277 -0.0372429266572 -0.832052469254 255 0 0
-0.465005666018 -0.0374774076045 0.809584200382 255 0 0
-0.0681844204664 -0.0401407852769 -1.15306448936 255 0 0
0.351029723883 -0.0273827388883 -0.248773247004 255 0 0
-0.508958518505 -0.0357947349548 0.785705626011 255 0 0
-0.506713032722 -0.0376917682588 0.886725068092 255 0 0
-0.190542310476 -0.0402571856976 -0.832409322262 255 0 0
0.282683849335 -0.057085569948 -0.808321774006 255 0 0
-0.553078472614 -0.0763031616807 0.815052032471 255 0 0
-0.497309297323 -0.0368508547544 0.888896226883 255 0 0
-0.189369559288 -0.0388904549181 -0.832137584686 255 0 0
0.340779334307 -0.0250989384949 -0.228918135166 255 0 0
0.341750651598 -0.0270389858633 -0.229898974299 255 0 0
-0.551977097988 -0.0713643208146 -1.13744604588 255 0 0
0.255129128695 -0.0558506846428 0.222283825278 255 0 0
0.359730452299 -0.0247741509229 -0.019241951406 255 0 0
-0.524475216866 -0.0394710414112 -0.404378980398 255 0 0
0.387594938278 -0.0272757820785 0.0679739639163 255 0 0
0.470423996449 -0.0357887744904 -0.256047666073 255 0 0
0.45318967104 -0.0322192795575 -0.00931687932462 255 0 0
0.453535407782 -0.0342720523477 -0.00864003133029 255 0 0
0.47932907939 -0.0327116511762 -0.0648310407996 255 0 0
-0.559714853764 -0.102640360594 -0.483103483915 255 0 0
0.282047510147 -0.0373173207045 0.231492608786 255 0 0
-0.453136771917 -0.0473000705242 0.996730208397 255 0 0
-0.539631783962 -0.0602180473506 -1.14044213295 255 0 0
-0.553172111511 -0.0752250850201 0.815222501755 255 0 0
-0.0644907951355 -0.033802062273 -1.02392184734 255 0 0
0.281744331121 -0.0529733076692 -0.770151793957 255 0 0
-0.0245630182326 -0.0411360114813 -1.14423775673 255 0 0
-0.196099221706 -0.0334692113101 0.875176489353 255 0 0
0.462676793337 -0.0320564396679 -0.210029363632 255 0 0
-0.496271759272 -0.0382953472435 0.888179183006 255 0 0
0.0184526741505 -0.0249829161912 0.614107251167 255 0 0
0.470913231373 -0.0335257649422 -0.255723834038 255 0 0
-0.51261472702 -0.0428558401763 1.03966784477 255 0 0
-0.194421470165 -0.0317621715367 0.875091135502 255 0 0
0.256007820368 -0.0541664883494 0.222984746099 255 0 0
-0.194471880794 -0.0356343239546 0.875560760498 255 0 0
-0.199446335435 -0.0432556346059 0.956515073776 255 0 0
-0.352373719215 -0.0700983703136 0.946352601051 255 0 0
0.257213950157 -0.0558056123555 0.111098594964 255 0 0
-0.493432879448 -0.0360794328153 0.924889922142 255 0 0
0.142800584435 -0.0537723340094 -0.248426645994 255 0 0
-0.533511817455 -0.0423689708114 0.8424949646 255 0 0
-0.532105267048 -0.0462853983045 0.84293282032 255 0 0
0.283669352531 -0.0379810221493 0.343980848789 255 0 0
0.281777918339 -0.045577287674 -0.407936185598 255 0 0
0.282535254955 -0.0384053215384 0.233438432217 255 0 0
-0.0660265907645 -0.0339472740889 -1.02381777763 255 0 0
-0.55092972517 -0.0701285749674 0.832790315151 255 0 0
0.357960045338 -0.0260878503323 0.0883734598756 255 0 0
0.25697889924 -0.0532905235887 0.266974717379 255 0 0
0.471608608961 -0.0327623300254 0.04386273399 255 0 0
0.258876502514 -0.0585711710155 0.11200491339 255 0 0
0.403440743685 -0.0122799333185 -0.0501130595803 255 0 0
0.359081506729 -0.024989778176 -0.0199795085937 255 0 0
-0.456931561232 -0.0549575127661 0.946574807167 255 0 0
-0.548977851868 -0.0682190582156 -0.509965240955 255 0 0
-0.187214285135 -0.0372725091875 0.913775622845 255 0 0
-0.408091038465 -0.0421528555453 1.09490227699 255 0 0
-0.452746152878 -0.0454635135829 0.996253788471 255 0 0
-0.194946154952 -0.0366852171719 0.901289999485 255 0 0
0.278137236834 -0.0422717705369 -0.254381030798 255 0 0
-0.196033492684 -0.0368898399174 0.901393353939 255 0 0
-0.226356893778 -0.0327886678278 0.826699197292 255 0 0
-0.554741859436 -0.085687354207 -0.495836526155 255 0 0
0.281250566244 -0.0411164537072 0.388188660145 255 0 0
0.288552433252 -0.029775261879 0.249632120132 255 0 0
-0.509145796299 -0.0352971144021 0.774933099747 255 0 0
0.278170377016 -0.0425449796021 -0.234333142638 255 0 0
-0.510163903236 -0.0387473888695 0.87720489502 255 0 0
-0.538439571857 -0.0540691837668 1.09583592415 255 0 0
-0.407993376255 -0.0387053526938 1.09446799755 255 0 0
-0.0747602954507 -0.0250080917031 0.619936287403 255 0 0
-0.444117516279 -0.0358412601054 0.844473004341 255 0 0
0.258142054081 -0.0539769679308 0.266427308321 255 0 0
0.391391545534 -0.0170689355582 -0.150342822075 255 0 0
-0.189039319754 -0.0354775190353 0.913774549961 255 0 0
-0.476182222366 -0.0388801284134 0.849873960018 255 0 0
0.365114271641 -0.0265409667045 0.0983470678329 255 0 0
-0.449954599142 -0.0650035589933 0.92252600193 255 0 0
-0.549032747746 -0.0710711404681 -0.44109031558 255 0 0
-0.516853749752 -0.0436529256403 -0.655493855476 255 0 0
-0.197870343924 -0.035569049418 0.90140414238 255 0 0
-0.531451642513 -0.0438970737159 0.875885009766 255 0 0
-0.524939656258 -0.0405364260077 -0.404735654593 255 0 0
-0.102457024157 -0.0252722874284 0.482968240976 255 0 0
-0.513980150223 -0.0448765084147 -0.584965646267 255 0 0
0.44748005271 -0.0305458623916 -0.188575610518 255 0 0
0.143802762032 -0.0629192441702 -0.558180451393 255 0 0
-0.502207100391 -0.0389806330204 0.981938064098 255 0 0
0.358106553555 -0.0241181999445 0.130373477936 255 0 0
0.267193824053 -0.051142077893 0.248688310385 255 0 0
-0.453280895948 -0.0466475971043 1.02186369896 255 0 0
0.0471386164427 -0.0356635414064 -1.03582322598 255 0 0
-0.202172443271 -0.0503431893885 0.984517455101 255 0 0
0.454270392656 -0.0307299308479 0.106474995613 255 0 0
-0.560667932034 -0.109214931726 -0.666959404945 255 0 0
-0.198769763112 -0.0422552414238 -0.336457639933 255 0 0
-0.449613243341 -0.0514286123216 0.971412777901 255 0 0
-0.103871844709 -0.0270265452564 0.482624322176 255 0 0
0.142214685678 -0.0534341298044 -0.249773308635 255 0 0
-0.195538461208 -0.0381307639182 0.928257465363 255 0 0
-0.453325897455 -0.0484518259764 1.02218198776 255 0 0
-0.538924634457 -0.050326757133 1.09945976734 255 0 0
0.265750467777 -0.0531339719892 0.248364880681 255 0 0
0.436166346073 -0.0315209552646 0.0447923243046 255 0 0
0.280594497919 -0.0507209375501 -0.557814538479 255 0 0
0.406638473272 -0.0269035939127 0.10717228055 255 0 0
-0.200148910284 -0.0406301394105 -0.22065089643 255 0 0
-0.49486798048 -0.0341761186719 0.858109176159 255 0 0
-0.477868765593 -0.0375641137362 0.850372254848 255 0 0
-0.106713943183 -0.0243447385728 0.482678204775 255 0 0
-0.197135999799 -0.0362288691103 0.927904903889 255 0 0
-0.187602654099 -0.0362692475319 0.888162910938 255 0 0
-0.205815821886 -0.0480890609324 0.984454631805 255 0 0
0.439416319132 -0.0209953803569 -0.147310748696 255 0 0
0.37151530385 -0.0256375595927 0.128582730889 255 0 0
-0.450885772705 -0.0474610999227 0.996276378632 255 0 0
0.467692017555 -0.032246042043 0.0549804344773 255 0 0
0.0970687717199 -0.0508872866631 0.361324042082 255 0 0
-0.200240731239 -0.0404795631766 -0.335937976837 255 0 0
-0.194566890597 -0.0382789410651 0.928003966808 255 0 0
-0.501185834408 -0.0370340533555 0.981942653656 255 0 0
-0.168880134821 -0.031539645046 0.771830320358 255 0 0
0.127771735191 -0.0713641270995 0.755975306034 255 0 0
-0.190864145756 -0.0298364479095 0.860511898994 255 0 0
-0.476692825556 -0.0348021872342 0.849605977535 255 0 0
0.0479179732502 -0.0281291548163 0.776801884174 255 0 0
-0.523498594761 -0.0563347674906 -1.17469382286 255 0 0
-0.199423119426 -0.0397890843451 -0.220602437854 255 0 0
-0.524184584618 -0.0447298660874 1.03208661079 255 0 0
-0.168393403292 -0.0308341756463 0.771005272865 255 0 0
0.382797092199 -0.0260777063668 0.0584018230438 255 0 0
-0.463251203299 -0.047531478107 0.873096466064 255 0 0
-0.136566728354 -0.0512761548162 0.960247278214 255 0 0
-0.406905174255 -0.0417733602226 1.09461152554 255 0 0
-0.189260989428 -0.034555811435 0.888129889965 255 0 0
-0.0224653426558 -0.0398928038776 -1.14498758316 255 0 0
0.300273299217 -0.0335959680378 -0.512079179287 255 0 0
-0.475073337555 -0.045708026737 0.97848623991 255 0 0
-0.538097083569 -0.0529966130853 1.03717398643 255 0 0
-0.203614473343 -0.0485613122582 0.984538912773 255 0 0
-0.453849196434 -0.054469678551 1.07794487476 255 0 0
-0.35225725174 -0.0397643074393 0.79067748785 255 0 0
-0.256642848253 -0.0733344480395 -0.764658868313 255 0 0
0.0944770872593 -0.0506234765053 0.359240829945 255 0 0
0.281286984682 -0.042132075876 -0.412430733442 255 0 0
-0.338080018759 -0.044191788882 0.783349394798 255 0 0
0.475195616484 -0.0308482963592 -0.0624520778656 255 0 0
0.00971900206059 -0.0473120324314 -1.17035210133 255 0 0
0.454442709684 -0.0308649409562 0.0856442078948 255 0 0
-0.53523850441 -0.0475592426956 -0.398847162724 255 0 0
-0.317608267069 -0.0727332532406 0.777140974998 255 0 0
0.282911270857 -0.0369339585304 0.344659596682 255 0 0
-0.143046423793 -0.0508487299085 0.945826947689 255 0 0
-0.520304441452 -0.0380656905472 0.834579765797 255 0 0
0.145808413625 -0.0635558888316 -0.713592886925 255 0 0
-0.188146710396 -0.0340211167932 0.861053466797 255 0 0
0.281759142876 -0.0358980968595 0.214245140553 255 0 0
-0.559860885143 -0.103425085545 -0.466005057096 255 0 0
-0.187351852655 -0.0310939382762 0.860797703266 255 0 0
-0.498943477869 -0.0369992591441 0.980616092682 255 0 0
0.425818443298 -0.0276800766587 0.0398085303605 255 0 0
-0.496700137854 -0.0350369811058 0.938833355904 255 0 0
0.366184145212 -0.0255126692355 0.0981878861785 255 0 0
-0.188380822539 -0.0387259721756 0.941305935383 255 0 0
0.0490892268717 -0.0331693850458 -1.03493642807 255 0 0
-0.316779226065 -0.0722174793482 0.776272237301 255 0 0
-0.532594025135 -0.0407801568508 0.816677093506 255 0 0
-0.167170062661 -0.0303853154182 0.767829835415 255 0 0
-0.187330245972 -0.0386168137193 0.941191375256 255 0 0
-0.545867085457 -0.0744649395347 1.01030135155 255 0 0
-0.240313589573 -0.0690087378025 -0.757619440556 255 0 0
0.288248687983 -0.0323116704822 -0.244277834892 255 0 0
0.289713352919 -0.0297101028264 0.249765977263 255 0 0
-0.531328499317 -0.056467846036 -0.996709406376 255 0 0
-0.0783030465245 -0.0354956686497 -1.04934644699 255 0 0
0.295914679766 -0.0304294712842 -0.512739419937 255 0 0
-0.24590484798 -0.0697470754385 -0.758086025715 255 0 0
0.43977317214 -0.0286557171494 0.0448107346892 255 0 0
0.334456503391 -0.0174126196653 -0.0648201033473 255 0 0
0.301063627005 -0.0465527921915 -0.824012875557 255 0 0
-0.166715472937 -0.0328067652881 0.772765338421 255 0 0
-0.442949712276 -0.0460617057979 1.00942897797 255 0 0
-0.462694495916 -0.0385936014354 0.847360551357 255 0 0
-0.0951833948493 -0.0403171256185 -1.11026096344 255 0 0
-0.5159689188 -0.0438384786248 -0.648143291473 255 0 0
0.468450993299 -0.0326373167336 0.0555810071528 255 0 0
0.0356659963727 -0.0610582195222 -1.10870742798 255 0 0
0.288883149624 -0.0389047712088 -0.405225843191 255 0 0
-0.0776171013713 -0.0365393906832 -1.04961574078 255 0 0
-0.495269089937 -0.0354827791452 0.948513746262 255 0 0
-0.189317628741 -0.0367503240705 0.940921127796 255 0 0
0.335754066706 -0.0175577905029 -0.0662323236465 255 0 0
0.147068858147 -0.0649892166257 -0.71400141716 255 0 0
0.335980117321 -0.0151057923213 -0.0651683807373 255 0 0
0.387098759413 -0.0264835543931 0.0581408590078 255 0 0
-0.17893075943 -0.0315848775208 -0.313033372164 255 0 0
-0.104649320245 -0.0278644561768 0.53900885582 255 0 0
0.41960427165 -0.0166931021959 -0.145438849926 255 0 0
0.443704664707 -0.0217623077333 -0.14155177772 255 0 0
-0.0750078856945 -0.0370288752019 -1.04939723015 255 0 0
0.412773877382 -0.00756276259199 -0.0573474727571 255 0 0
0.284927725792 -0.0344010218978 0.216532051563 255 0 0
0.42689293623 -0.0304517485201 0.0402123369277 255 0 0
-0.140713706613 -0.0462918952107 0.918855190277 255 0 0
-0.528308868408 -0.0568635314703 -1.11053621769 255 0 0
0.357913345098 -0.0269697736949 0.0437689423561 255 0 0
0.283216357231 -0.0530296675861 -0.717707574368 255 0 0
0.421331822872 -0.0233321227133 -0.0358098447323 255 0 0
-0.446327656507 -0.038321621716 0.841860771179 255 0 0
-0.353715568781 -0.0399881340563 0.790456175804 255 0 0
0.286667346954 -0.0408817268908 -0.378555119038 255 0 0
-0.49775698781 -0.0347466357052 0.941487073898 255 0 0
-0.511141002178 -0.0399805009365 0.876230478287 255 0 0
-0.181346520782 -0.0305668897927 -0.310753494501 255 0 0
-0.0954257771373 -0.0377442464232 -1.10858130455 255 0 0
0.521962285042 -0.0352542735636 0.816982984543 255 0 0
-0.395690381527 -0.0376989208162 0.802674233913 255 0 0
0.143407136202 -0.0584349557757 -0.401371598244 255 0 0
0.373481571674 -0.025283606723 0.011992062442 255 0 0
0.0228884518147 -0.0251950472593 0.571721673012 255 0 0
0.455880761147 -0.0311306025833 0.030565040186 255 0 0
0.303318947554 -0.0456299819052 -0.823591053486 255 0 0
0.418393969536 -0.0151920262724 -0.145978733897 255 0 0
0.0938677713275 -0.0501030907035 0.198422729969 255 0 0
-0.445774316788 -0.0381679162383 0.846160709858 255 0 0
0.371437340975 -0.026343068108 0.00959558226168 255 0 0
-0.525954544544 -0.0403086952865 0.821359872818 255 0 0
-0.137900128961 -0.0529503040016 0.9607437253 255 0 0
0.4248290658 -0.028151486069 0.0417312160134 255 0 0
-0.180470913649 -0.0348767898977 -0.524048507214 255 0 0
-0.545196294785 -0.0644328743219 -0.65924757719 255 0 0
-0.485292226076 -0.0351079627872 0.856020092964 255 0 0
-0.484371304512 -0.0379689671099 1.00256943703 255 0 0
0.240204274654 -0.0550530664623 0.329551964998 255 0 0
0.0279750805348 -0.04687442258 -1.14342486858 255 0 0
-0.522183299065 -0.0433239713311 1.03293812275 255 0 0
0.450874894857 -0.0289392452687 0.09846008569 255 0 0
-0.293637156487 -0.0356780029833 1.09377634525 255 0 0
0.261464715004 -0.0540763773024 0.24779433012 255 0 0
-0.165820792317 -0.0376967191696 0.91956526041 255 0 0
-0.198782220483 -0.0447924844921 -0.450790405273 255 0 0
-0.553826987743 -0.0976188108325 1.02190482616 255 0 0
0.0462778285146 -0.0353753603995 -1.03715205193 255 0 0
0.239941224456 -0.053052470088 0.330611228943 255 0 0
-0.198434203863 -0.0383295975626 1.07115471363 255 0 0
0.0947071015835 -0.0550353862345 0.205303162336 255 0 0
-0.28963136673 -0.0371413528919 1.09393274784 255 0 0
-0.532614350319 -0.0520682036877 -0.717027962208 255 0 0
-0.0578838139772 -0.0266540981829 0.42930150032 255 0 0
-0.448617398739 -0.0488097928464 0.98414349556 255 0 0
0.239361688495 -0.0530975088477 0.331572204828 255 0 0
-0.102861955762 -0.0289483722299 0.539280116558 255 0 0
0.299181312323 -0.047380913049 -0.824736773968 255 0 0
-0.218502253294 -0.044228348881 -0.833634972572 255 0 0
-0.484613895416 -0.0343393273652 0.856108129025 255 0 0
0.422108650208 -0.0279063824564 0.0446181632578 255 0 0
0.288857072592 -0.0354426167905 -0.37983328104 255 0 0
-0.443691492081 -0.0464290492237 0.98332375288 255 0 0
0.293908834457 -0.03327774629 -0.361243337393 255 0 0
0.421799242496 -0.0301175173372 0.0907786339521 255 0 0
0.412945240736 -0.008390837349 -0.0567621700466 255 0 0
-0.181050673127 -0.0341558121145 -0.660167515278 255 0 0
-0.0586149357259 -0.0408752784133 -1.07061600685 255 0 0
-0.135907024145 -0.0347842238843 -0.668120324612 255 0 0
-0.447800278664 -0.0582519620657 0.934628784657 255 0 0
-0.141904309392 -0.0454696416855 0.919091820717 255 0 0
-0.0973101258278 -0.027111902833 0.46265232563 255 0 0
0.420829534531 -0.0279782582074 0.0912376195192 255 0 0
-0.447055488825 -0.0532387569547 1.06561601162 255 0 0
0.41431415081 -0.0129725635052 -0.109483994544 255 0 0
-0.450305759907 -0.0451197847724 0.983530640602 255 0 0
-0.55349034071 -0.0727361664176 -0.573794066906 255 0 0
0.465720057487 -0.0321355052292 0.0555709376931 255 0 0
-0.443762421608 -0.0477395653725 1.00957882404 255 0 0
0.407930314541 -0.0067951977253 -0.0569827593863 255 0 0
-0.179039075971 -0.0289340335876 -0.201161667705 255 0 0
-0.517533779144 -0.0367736555636 0.833729028702 255 0 0
0.280928879976 -0.0552598200738 -0.720692932606 255 0 0
-0.536618411541 -0.0546630807221 -0.668249249458 255 0 0
-0.0594603903592 -0.037281692028 -1.07012939453 255 0 0
-0.135999083519 -0.0346059836447 -0.66973811388 255 0 0
-0.0247411895543 -0.0430183783174 -1.14536929131 255 0 0
-0.447109311819 -0.0599971190095 0.934454143047 255 0 0
0.422047883272 -0.0301215406507 0.0925508067012 255 0 0
0.0685905218124 -0.0648586079478 -1.12251651287 255 0 0
0.145267367363 -0.057514231652 -0.400602161884 255 0 0
-0.105285093188 -0.0291089825332 0.538912415504 255 0 0
-0.17843413353 -0.0351060442626 -0.659916996956 255 0 0
-0.362696230412 -0.038840752095 0.805474221706 255 0 0
-0.473395466805 -0.0480872802436 0.967925190926 255 0 0
-0.200840160251 -0.0446048341691 1.03348648548 255 0 0
0.297041773796 -0.0327673815191 -0.360849112272 255 0 0
-0.349923968315 -0.0371339954436 0.77438813448 255 0 0
0.421310275793 -0.0224430430681 -0.0371382944286 255 0 0
0.145404711366 -0.0510231889784 0.28802767396 255 0 0
0.295872420073 -0.0376465246081 -0.668021798134 255 0 0
0.142115682364 -0.056343395263 -0.400748372078 255 0 0
-0.549938261509 -0.0772040262818 -0.414438426495 255 0 0
0.441567838192 -0.0193255320191 -0.140605404973 255 0 0
-0.470591336489 -0.0475345477462 0.955380260944 255 0 0
-0.554565787315 -0.0977196842432 -0.640747845173 255 0 0
-0.546459972858 -0.0616943128407 -0.413068443537 255 0 0
-0.472642093897 -0.0469500869513 0.96699821949 255 0 0
0.301945149899 -0.0338498912752 -0.510932981968 255 0 0
0.299228131771 -0.0381327271461 -0.667786598206 255 0 0
0.345079481602 -0.0190170519054 -0.142345607281 255 0 0
-0.17932215333 -0.0391357392073 -0.541443824768 255 0 0
-0.237132459879 -0.0356965586543 1.09158873558 255 0 0
-0.454476982355 -0.0396539643407 0.791046440601 255 0 0
-0.205607607961 -0.0454651974142 1.03363323212 255 0 0
-0.062422875315 -0.02540493384 0.60062623024 255 0 0
-0.0275367666036 -0.0208880454302 0.525441408157 255 0 0
-0.200554579496 -0.0445640906692 -0.681873142719 255 0 0
-0.522174954414 -0.0370101481676 0.811694741249 255 0 0
-0.19143281877 -0.0383283533156 1.05984950066 255 0 0
-0.124404884875 -0.0672867819667 0.950194120407 255 0 0
-0.522400915623 -0.0367294549942 0.805615365505 255 0 0
-0.452529489994 -0.0492994152009 1.05040335655 255 0 0
0.102757282555 -0.0545153617859 -0.245730370283 255 0 0
-0.522957265377 -0.0466129928827 -0.672888040543 255 0 0
0.239561587572 -0.0553737096488 0.292098522186 255 0 0
0.241886049509 -0.0541646257043 0.293452233076 255 0 0
-0.146696671844 -0.033911883831 -0.511112630367 255 0 0
0.425576895475 -0.0319192633033 -0.00422294298187 255 0 0
-0.486516326666 -0.0380976907909 0.248930320144 255 0 0
-0.237369254231 -0.0339689776301 1.09106874466 255 0 0
-0.204944580793 -0.0469274148345 1.03376960754 255 0 0
0.44474157691 -0.0263992697001 -0.160637021065 255 0 0
0.341664940119 -0.0227608960122 -0.031361438334 255 0 0
0.257976859808 -0.054179944098 0.186197578907 255 0 0
-0.0958512946963 -0.026176372543 0.46394944191 255 0 0
0.0833965390921 -0.054516762495 -1.07989811897 255 0 0
-0.452459275723 -0.0479581281543 1.05024182796 255 0 0
-0.548198461533 -0.0716237202287 -0.415794909 255 0 0
0.231128409505 -0.057270091027 0.2524330616 255 0 0
0.456346303225 -0.0315522402525 0.0824087932706 255 0 0
0.455202519894 -0.0326920337975 0.0307004265487 255 0 0
-0.241951242089 -0.032743178308 1.09134745598 255 0 0
0.523027777672 -0.0361170358956 0.81699359417 255 0 0
0.00157081789803 -0.0273783318698 0.623613417149 255 0 0
-0.466150909662 -0.0454052947462 0.876680910587 255 0 0
-0.139267325401 -0.0335612669587 -0.635207414627 255 0 0
0.150244832039 -0.0507999137044 0.290077894926 255 0 0
0.232998967171 -0.0520809292793 0.30942440033 255 0 0
0.283472120762 -0.0512806028128 -0.842241346836 255 0 0
0.242498546839 -0.0559534318745 0.139591485262 255 0 0
0.278799384832 -0.0437836684287 -0.234040260315 255 0 0
-0.434133499861 -0.0391998328269 0.847097039223 255 0 0
-0.204434975982 -0.0375347286463 1.08438634872 255 0 0
-0.143847152591 -0.0342072248459 -0.509315729141 255 0 0
0.280673265457 -0.0471033267677 -0.558725953102 255 0 0
0.103779010475 -0.0557288192213 -0.408977329731 255 0 0
-0.200760826468 -0.0462290234864 -0.338858067989 255 0 0
0.397923827171 -0.0275892242789 0.0886636152864 255 0 0
0.233833685517 -0.0540039502084 0.287936031818 255 0 0
-0.547829389572 -0.0691673234105 1.073792696 255 0 0
-0.441346257925 -0.0514924414456 0.95774692297 255 0 0
-0.519773840904 -0.0427964664996 1.02158021927 255 0 0
-0.483504086733 -0.0407079271972 0.977240562439 255 0 0
-0.144205629826 -0.0383736826479 -0.511182904243 255 0 0
0.45471984148 -0.0312190596014 0.0941554009914 255 0 0
0.275684267282 -0.0607091933489 -0.831616520882 255 0 0
0.285363912582 -0.0337025932968 0.198076874018 255 0 0
-0.0242912154645 -0.0254562254995 0.525224924088 255 0 0
-0.334840208292 -0.0487077459693 0.772812664509 255 0 0
0.524534761906 -0.0364593751729 0.816907405853 255 0 0
0.241016328335 -0.0552424900234 0.293408632278 255 0 0
-0.198625952005 -0.0433323979378 -0.68211209774 255 0 0
0.522570669651 -0.0418145060539 -0.109310828149 255 0 0
0.401897251606 -0.0261247158051 -0.202291116118 255 0 0
0.407606005669 -0.00662856828421 -0.0656395852566 255 0 0
-0.0953700840473 -0.0243747550994 0.463713437319 255 0 0
-0.489016026258 -0.0342324078083 0.583131968975 255 0 0
-0.157702848315 -0.0462567396462 0.958409905434 255 0 0
-0.489870876074 -0.0335914865136 0.583583772182 255 0 0
0.231938555837 -0.0580991990864 0.250828415155 255 0 0
0.0843540132046 -0.0568612851202 0.181374937296 255 0 0
-0.134331032634 -0.0359535440803 -0.668815851212 255 0 0
-0.181588321924 -0.034755025059 -0.542828202248 255 0 0
-0.00080054445425 -0.0274985674769 0.623823165894 255 0 0
-0.445039719343 -0.0483563989401 1.03587067127 255 0 0
-0.441732376814 -0.0526704639196 0.958265662193 255 0 0
0.340093106031 -0.0198662802577 -0.0354788452387 255 0 0
-0.525811195374 -0.0444459319115 1.00214350224 255 0 0
-0.488868355751 -0.0357117280364 0.53052854538 255 0 0
0.233411058784 -0.0546066835523 0.309289067984 255 0 0
-0.0247492883354 -0.0232281722128 0.52518427372 255 0 0
0.0432381331921 -0.0232208501548 0.357391506433 255 0 0
0.23933750391 -0.0537234656513 0.138316974044 255 0 0
0.279263168573 -0.0540348403156 -0.723364830017 255 0 0
0.103955954313 -0.0613195598125 -0.565408587456 255 0 0
-0.427744567394 -0.0410144925117 0.787182331085 255 0 0
-0.263497233391 -0.0713342726231 -0.37598246336 255 0 0
-0.194761112332 -0.0404503270984 1.06005275249 255 0 0
0.241331294179 -0.0587373375893 -0.307903081179 255 0 0
0.341658473015 -0.0204579886049 -0.0338358655572 255 0 0
-0.336120009422 -0.0477261133492 0.768077850342 255 0 0
-0.529439032078 -0.0562654025853 -0.934120595455 255 0 0
-0.485589623451 -0.0362619794905 0.28865852952 255 0 0
-0.540251910686 -0.0477937608957 1.10025644302 255 0 0
-0.522918820381 -0.0435897000134 1.02214682102 255 0 0
-0.193989187479 -0.045312024653 0.970481157303 255 0 0
0.429325073957 -0.0145989824086 -0.119638778269 255 0 0
0.0907364860177 -0.0537574216723 0.312642067671 255 0 0
0.0914468765259 -0.0527773573995 0.151923343539 255 0 0
-0.200069397688 -0.049870185554 -0.451240330935 255 0 0
-0.200263559818 -0.0435109622777 -0.221857994795 255 0 0
-0.339110851288 -0.0428398288786 0.77292072773 255 0 0
0.455389469862 -0.0293059255928 0.0756871327758 255 0 0
-0.522685408592 -0.0392618365586 0.809446394444 255 0 0
0.0612485334277 -0.0643569603562 -0.729496061802 255 0 0
-0.262117117643 -0.0648142695427 -0.255046695471 255 0 0
0.303820431232 -0.0302877184004 -0.329729050398 255 0 0
-0.554887890816 -0.0893625169992 -0.628773033619 255 0 0
-0.419590651989 -0.0425910428166 1.02531468868 255 0 0
0.0914975628257 -0.0508167259395 -1.06833636761 255 0 0
0.108396731317 -0.0598672479391 -0.794293224812 255 0 0
0.0467642396688 -0.0455902479589 -0.75646096468 255 0 0
-0.502876281738 -0.0375173389912 1.04704797268 255 0 0
-0.489681690931 -0.0372415445745 0.530820250511 255 0 0
0.0675618499517 -0.0642704516649 -1.12306427956 255 0 0
-0.542216360569 -0.0577806532383 -0.669239461422 255 0 0
0.435064435005 -0.0194313451648 -0.136753633618 255 0 0
-0.486506462097 -0.0344632640481 0.249714329839 255 0 0
0.429573237896 -0.0109180705622 -0.0689638331532 255 0 0
-0.0991559997201 -0.0377968139946 -1.02703559399 255 0 0
-0.511653244495 -0.0417863465846 -0.0759603232145 255 0 0
0.302717596292 -0.0294397138059 -0.330370485783 255 0 0
0.236762240529 -0.062105525285 0.768186867237 255 0 0
-0.487470924854 -0.0336256511509 0.28743276 255 0 0
0.428685694933 -0.0163411404938 -0.1208704561 255 0 0
-0.477955013514 -0.0380274131894 0.86046642065 255 0 0
0.270297139883 -0.0539925396442 -0.520291626453 255 0 0
0.105751618743 -0.0631032511592 -0.726246833801 255 0 0
-0.141294658184 -0.0487432107329 0.972986459732 255 0 0
0.303014963865 -0.0288299843669 -0.276674032211 255 0 0
0.428108781576 -0.0150660332292 -0.121126301587 255 0 0
0.281455427408 -0.0496279075742 -0.842550039291 255 0 0
0.0903200060129 -0.0540964864194 0.148518458009 255 0 0
-0.484531134367 -0.035833992064 0.270401924849 255 0 0
0.143425583839 -0.0463207624853 0.145194128156 255 0 0
-0.0979774594307 -0.0376108586788 -1.02690982819 255 0 0
0.0318188332021 -0.0471707992256 -1.0708373785 255 0 0
-0.500530660152 -0.0382529273629 1.02275180817 255 0 0
-0.388794749975 -0.0648422539234 0.909390985966 255 0 0
0.233692914248 -0.0548735558987 0.285252660513 255 0 0
0.0458235628903 -0.0256888698786 0.358136802912 255 0 0
-0.546561777592 -0.0710917711258 -0.626256406307 255 0 0
-0.341032534838 -0.0426154844463 0.768020808697 255 0 0
-0.182793453336 -0.0399782322347 -0.808444082737 255 0 0
0.286085098982 -0.047337025404 -0.685062050819 255 0 0
-0.497600108385 -0.0366618819535 -0.531685173512 255 0 0
-0.197936668992 -0.0408396497369 1.07143700123 255 0 0
-0.17994594574 -0.0383947081864 -0.811917126179 255 0 0
-0.135871082544 -0.0367872938514 -0.63536632061 255 0 0
0.0482441447675 -0.0284245740622 0.678319036961 255 0 0
-0.434376418591 -0.0403531230986 0.848623454571 255 0 0
-0.142895206809 -0.036503944546 -0.544212341309 255 0 0
-0.488372981548 -0.0299609191716 0.405798226595 255 0 0
0.00287115527317 -0.0395240075886 -1.06775295734 255 0 0
-0.141992911696 -0.0479649864137 0.973086774349 255 0 0
0.301516890526 -0.0391014516354 -0.667174339294 255 0 0
0.101174011827 -0.0538193881512 -0.248389214277 255 0 0
-0.520090639591 -0.0454784296453 1.03148472309 255 0 0
-0.136011183262 -0.0504472702742 1.036647439 255 0 0
-0.181718960404 -0.034994520247 -0.428516358137 255 0 0
-0.490772783756 -0.0326313748956 0.717681765556 255 0 0
-0.540448367596 -0.0589902698994 -0.997793197632 255 0 0
0.106544561684 -0.0607138052583 -0.797179818153 255 0 0
0.228679567575 -0.0579058229923 0.251009553671 255 0 0
-0.534717321396 -0.0505299605429 -0.249933063984 255 0 0
-0.345872163773 -0.0380271375179 0.864268839359 255 0 0
-0.502146542072 -0.036042585969 1.02135515213 255 0 0
-0.267999589443 -0.0460237450898 0.928111255169 255 0 0
-0.544516205788 -0.0956777185202 -0.65877199173 255 0 0
-0.269122928381 -0.0495071522892 0.929060459137 255 0 0
0.253664940596 -0.0795569047332 -0.835879266262 255 0 0
0.0903547555208 -0.0667792633176 -0.745419442654 255 0 0
-0.100288100541 -0.0356629788876 -1.02531075478 255 0 0
0.383747726679 -0.0176167134196 -0.164271280169 255 0 0
-0.313857406378 -0.104616038501 0.946943640709 255 0 0
0.37956610322 -0.0283517576754 0.0911284908652 255 0 0
-0.522818624973 -0.0471197776496 1.09393131733 255 0 0
-0.490759283304 -0.0415333099663 0.977023005486 255 0 0
0.290304303169 -0.0395545884967 -0.552610993385 255 0 0
0.25994476676 -0.0584086738527 0.764851391315 255 0 0
-0.142045781016 -0.0436312817037 1.04854416847 255 0 0
-0.52430588007 -0.0472519099712 -0.673014760017 255 0 0
0.302254974842 -0.0273797158152 -0.276910662651 255 0 0
0.0693696439266 -0.06228883937 -1.12371182442 255 0 0
0.377634972334 -0.0258230343461 0.0894743576646 255 0 0
0.186363145709 -0.0271067023277 0.834882438183 255 0 0
-0.141453251243 -0.0436847694218 0.904831767082 255 0 0
0.398363023996 -0.0118679525331 -0.0491445399821 255 0 0
0.00201709684916 -0.0239549539983 0.466829419136 255 0 0
-0.185093283653 -0.0394500680268 -0.808681666851 255 0 0
0.117499805987 -0.0618568398058 -0.794376671314 255 0 0
0.250681608915 -0.057391256094 0.763224005699 255 0 0
0.0536737367511 -0.0342378020287 0.765270590782 255 0 0
0.456346839666 -0.0288182292134 -0.158026427031 255 0 0
0.00474549643695 -0.0414231084287 -1.06823050976 255 0 0
-0.416587263346 -0.0425567030907 1.0188229084 255 0 0
0.290184646845 -0.0374511815608 -0.532624959946 255 0 0
-0.141863137484 -0.0508562289178 0.932717502117 255 0 0
-0.13816998899 -0.0313011705875 0.862189590931 255 0 0
-0.100998386741 -0.0378404669464 -1.00554907322 255 0 0
-0.00108797894791 -0.0397050045431 -1.06774699688 255 0 0
-0.546302139759 -0.0620972588658 -0.400995343924 255 0 0
0.379711776972 -0.0261922907084 0.0911459475756 255 0 0
-0.44911968708 -0.0522939525545 1.06519758701 255 0 0
-0.135155513883 -0.0316318646073 -0.395603299141 255 0 0
-0.198836877942 -0.044628739357 -0.566876351833 255 0 0
0.23107111454 -0.051977802068 0.309689283371 255 0 0
0.392133891582 -0.0117288911715 -0.0496298074722 255 0 0
-0.0732686296105 -0.0409110486507 -1.17681705952 255 0 0
-0.137634903193 -0.0333999879658 -0.395432978868 255 0 0
0.062480520457 -0.0667574703693 -0.730894804001 255 0 0
-0.0499144978821 -0.0239497553557 0.20173355937 255 0 0
0.102049179375 -0.0586956031621 -0.565941929817 255 0 0
0.430908858776 -0.00909679569304 -0.0688989460468 255 0 0
0.396675020456 -0.0309410300106 -0.228786215186 255 0 0
0.425058484077 -0.029572956264 -0.00386723200791 255 0 0
0.153304874897 -0.0611425824463 -0.787139773369 255 0 0
-0.100607991219 -0.0367052778602 -1.00438165665 255 0 0
0.427706509829 -0.00839073769748 -0.0692124068737 255 0 0
0.162140190601 -0.0592578835785 -0.4875664711 255 0 0
-0.127257362008 -0.0633141025901 0.923139035702 255 0 0
-0.190169110894 -0.0345096252859 0.805510878563 255 0 0
0.0913941711187 -0.0564838014543 -0.430951207876 255 0 0
0.299979001284 -0.0314743220806 -0.359683841467 255 0 0
0.055254008621 -0.0352569334209 -1.04127001762 255 0 0
-0.502953886986 -0.0369432345033 1.03192996979 255 0 0
-0.544701933861 -0.0954285562038 -0.667484223843 255 0 0
0.424304693937 -0.0310689359903 -0.00475013395771 255 0 0
-0.486210852861 -0.0344091840088 0.436913609505 255 0 0
0.0485137701035 -0.0293389372528 0.704462707043 255 0 0
-0.0553728044033 -0.0370203927159 -1.12900185585 255 0 0
0.188495099545 -0.029527515173 0.835756719112 255 0 0
0.246402680874 -0.0560517348349 -0.281279683113 255 0 0
-0.518887042999 -0.0349365100265 0.0240036640316 255 0 0
0.456863850355 -0.0338351428509 -0.229789718986 255 0 0
0.428483664989 -0.0328188166022 -0.0193083360791 255 0 0
-0.326719671488 -0.0353962033987 0.861674427986 255 0 0
0.396010458469 -0.0292627830058 -0.228464469314 255 0 0
-0.137906894088 -0.0359209664166 -0.541703760624 255 0 0
-0.0309066455811 -0.0271888803691 0.194551721215 255 0 0
0.00482689915225 -0.0255413185805 0.463761746883 255 0 0
0.24853156507 -0.0608558058739 -0.440189659595 255 0 0
-0.268830597401 -0.0461178943515 0.927447140217 255 0 0
-0.198522046208 -0.0447257608175 1.00986838341 255 0 0
0.3289757967 -0.0177216306329 -0.134799480438 255 0 0
-0.488528341055 -0.0356549806893 0.925517678261 255 0 0
0.233399227262 -0.0526880174875 0.153334528208 255 0 0
0.190505936742 -0.029766920954 0.833461046219 255 0 0
0.396500706673 -0.0233745854348 -0.195267692208 255 0 0
-0.33068433404 -0.0341062955558 0.86228621006 255 0 0
-0.0636812821031 -0.0363398939371 -0.968986332417 255 0 0
0.288433283567 -0.0376425050199 -0.552726209164 255 0 0
-0.565498888493 -0.105480976403 -0.0543045140803 255 0 0
-0.147307291627 -0.0330340415239 -0.317110747099 255 0 0
0.112868137658 -0.0686569139361 -0.180896982551 255 0 0
0.235088288784 -0.0520663037896 0.153458923101 255 0 0
-0.571460485458 -0.125799566507 -0.0836749598384 255 0 0
-0.205131843686 -0.0401914715767 1.08350861073 255 0 0
-0.557051301003 -0.0826627537608 0.831675052643 255 0 0
-0.286630213261 -0.0375864729285 0.80589735508 255 0 0
0.247444659472 -0.0657325088978 -0.596335291862 255 0 0
0.063150241971 -0.0626816228032 -0.565222501755 255 0 0
0.263078957796 -0.0564484559 -0.231484875083 255 0 0
-0.403917789459 -0.0439041107893 1.01485431194 255 0 0
0.455259621143 -0.0347230881453 -0.230183631182 255 0 0
0.0297732707113 -0.0488050803542 -1.07084035873 255 0 0
-0.193109095097 -0.0407199077308 1.04678416252 255 0 0
0.270832508802 -0.0566781274974 -0.52100366354 255 0 0
0.399368911982 -0.00725968694314 -0.0642215833068 255 0 0
0.228069499135 -0.0748524516821 -0.815932571888 255 0 0
-0.00373608688824 -0.0277765449136 0.515421390533 255 0 0
-0.138587087393 -0.0327221788466 -0.425454676151 255 0 0
-0.382620453835 -0.049773029983 1.06567788124 255 0 0
0.4634129107 -0.033139154315 0.0742058008909 255 0 0
-0.0519491434097 -0.0246025528759 0.601768314838 255 0 0
-0.49158012867 -0.0355634279549 0.71787405014 255 0 0
0.00243643089198 -0.0244736094028 0.46815687418 255 0 0
-0.449650734663 -0.0468549579382 1.03517079353 255 0 0
0.0638546869159 -0.0626332834363 -0.56625187397 255 0 0
0.400153338909 -0.0291281826794 -0.267932683229 255 0 0
-0.489007890224 -0.0337563827634 0.718627870083 255 0 0
-0.189004912972 -0.0353067703545 1.07102072239 255 0 0
-0.00487744715065 -0.0254204981029 0.515405774117 255 0 0
0.453955113888 -0.0318058691919 -0.229207903147 255 0 0
0.20995144546 -0.0675146952271 -0.795652627945 255 0 0
-0.549370110035 -0.0911047384143 -0.397864848375 255 0 0
-0.381496310234 -0.0485404543579 1.0645147562 255 0 0
-0.145063847303 -0.0426341369748 1.04872345924 255 0 0
0.268327146769 -0.0532723665237 0.336038351059 255 0 0
0.0057478165254 -0.0281941313297 0.592671871185 255 0 0
-0.0510825738311 -0.0275047123432 0.602074384689 255 0 0
0.162046134472 -0.0582064129412 -0.487422138453 255 0 0
-0.383192956448 -0.0456857196987 1.06418836117 255 0 0
-0.142870634794 -0.0473080612719 0.973267257214 255 0 0
-0.0544876754284 -0.0406047962606 -1.13033521175 255 0 0
-0.470994353294 -0.047425635159 0.967819213867 255 0 0
-0.536694169044 -0.0506311953068 1.02148199081 255 0 0
0.14678491652 -0.0527091063559 -0.598642468452 255 0 0
0.146443501115 -0.0493380576372 -0.598148882389 255 0 0
-0.140572369099 -0.0324314907193 0.863096773624 255 0 0
0.464099168777 -0.0311178155243 0.0748094320297 255 0 0
0.268688321114 -0.0621022582054 -0.675933659077 255 0 0
0.222733795643 -0.0566447265446 -0.356138974428 255 0 0
-0.538988471031 -0.0588173493743 1.05640232563 255 0 0
0.379313021898 -0.0189080890268 -0.165970921516 255 0 0
-0.136317238212 -0.0448189154267 0.905142307281 255 0 0
-0.150210946798 -0.0453585982323 0.9321398139 255 0 0
-0.525126457214 -0.0524217672646 -1.10992395878 255 0 0
0.281202733517 -0.0470700077713 -0.39019832015 255 0 0
0.113561302423 -0.0685445070267 -0.181890875101 255 0 0
0.266044795513 -0.0793179497123 1.03083145618 255 0 0
-0.493154227734 -0.0349918864667 0.768705070019 255 0 0
0.0972335487604 -0.0576775446534 0.100075550377 255 0 0
0.365634590387 -0.0276824105531 0.0588089451194 255 0 0
0.101797454059 -0.0614746846259 -0.735436022282 255 0 0
-0.183713316917 -0.040704511106 1.0064496994 255 0 0
-0.157229945064 -0.0436998941004 1.01296937466 255 0 0
-0.391635537148 -0.0713375732303 0.965258896351 255 0 0
-0.135752648115 -0.0586225315928 1.01514935493 255 0 0
-0.328701019287 -0.0352325662971 0.862405717373 255 0 0
0.0324461571872 -0.0482579916716 -1.07037055492 255 0 0
0.232522502542 -0.0744690895081 -0.813870131969 255 0 0
0.0304196551442 -0.0530008599162 -1.1309030056 255 0 0
-0.398350298405 -0.0488187670708 1.07014012337 255 0 0
0.148428097367 -0.0590663142502 -0.75660777092 255 0 0
0.400725096464 -0.0310992524028 -0.26789316535 255 0 0
-0.555736005306 -0.0815672948956 0.8235283494 255 0 0
0.0477321632206 -0.0498727448285 -0.758140444756 255 0 0
-0.552252292633 -0.0876522883773 -0.631704747677 255 0 0
0.30465182662 -0.0323511064053 -0.482683211565 255 0 0
-0.492210924625 -0.0320235267282 0.622503101826 255 0 0
-0.574674963951 -0.134632855654 -1.12684750557 255 0 0
-0.488620579243 -0.0335679836571 0.622941076756 255 0 0
0.0389723703265 -0.0251020807773 0.355717808008 255 0 0
-0.0661589503288 -0.0362768024206 -0.968800425529 255 0 0
0.145624220371 -0.0507453419268 -0.598140895367 255 0 0
0.240091472864 -0.0576073601842 -0.307724326849 255 0 0
-0.554188609123 -0.0839119404554 0.902675449848 255 0 0
-0.517580091953 -0.0422164611518 0.238483756781 255 0 0
-0.213622868061 -0.0472935736179 1.07521772385 255 0 0
-0.363041698933 -0.0415844768286 0.862648189068 255 0 0
-0.346747219563 -0.0353277027607 0.864039242268 255 0 0
-0.168259873986 -0.0395118184388 1.00801753998 255 0 0
-0.0635144412518 -0.0387266241014 -0.969787061214 255 0 0
0.454359352589 -0.0289955064654 0.142683237791 255 0 0
0.241157650948 -0.0632010251284 -0.465171068907 255 0 0
0.272688448429 -0.0491130240262 0.415372759104 255 0 0
-0.139201551676 -0.0345326438546 -0.417546421289 255 0 0
-0.391206949949 -0.0467638336122 0.866846323013 255 0 0
0.0370001122355 -0.0252142585814 0.569616258144 255 0 0
-0.564154863358 -0.116648860276 -0.645049631596 255 0 0
-0.408973425627 -0.0480407550931 0.867341458797 255 0 0
0.439874142408 -0.0307857319713 -0.0110263219103 255 0 0
-0.148499235511 -0.028920352459 -0.200738206506 255 0 0
-0.100108608603 -0.0347053334117 -1.00521492958 255 0 0
0.263601839542 -0.0583583936095 -0.230960413814 255 0 0
0.090389765799 -0.0532112568617 -0.431038796902 255 0 0
0.453261435032 -0.0285196714103 0.143241241574 255 0 0
0.429868817329 -0.0327876098454 -0.0188096538186 255 0 0
-0.335426181555 -0.0412950553 0.284612506628 255 0 0
0.22958470881 -0.0602290816605 -0.360517919064 255 0 0
0.152975663543 -0.0678665190935 -0.110453076661 255 0 0
0.160967797041 -0.0625836327672 -0.643554091454 255 0 0
0.398424208164 -0.0307265315205 -0.268885910511 255 0 0
0.0418912321329 -0.0255255457014 0.322613269091 255 0 0
0.25115057826 -0.0700172632933 -0.642294228077 255 0 0
0.396134734154 -0.0246854238212 -0.194928616285 255 0 0
-0.134359538555 -0.0469990037382 1.03698170185 255 0 0
0.148209676147 -0.0576632544398 -0.756429612637 255 0 0
-0.212692111731 -0.0616760291159 0.777752459049 255 0 0
0.150285899639 -0.0494166202843 -0.438761383295 255 0 0
0.163729846478 -0.0582884512842 -0.488681048155 255 0 0
0.450654983521 -0.0214883498847 -0.0866097956896 255 0 0
0.155610591173 -0.0642735213041 -0.105506464839 255 0 0
0.379615038633 -0.0257236212492 0.115054883063 255 0 0
-0.140296950936 -0.0336221829057 -0.42766186595 255 0 0
0.0390951633453 -0.0606554672122 -1.11734187603 255 0 0
0.435780912638 -0.0139315994456 -0.088225543499 255 0 0
-0.0100820893422 -0.0253841727972 0.771830976009 255 0 0
0.206037148833 -0.0628773346543 -0.726857244968 255 0 0
0.243803456426 -0.0676841810346 -0.621951460838 255 0 0
0.269464403391 -0.0539585873485 0.18167822063 255 0 0
0.166123837233 -0.0614382438362 -0.645689725876 255 0 0
0.258068054914 -0.0561113655567 0.413066864014 255 0 0
-0.399765431881 -0.0464952327311 1.07015860081 255 0 0
-0.486590862274 -0.0366204306483 0.88871794939 255 0 0
0.249528884888 -0.0581737235188 -0.328091979027 255 0 0
0.263491213322 -0.060352742672 -0.3509285748 255 0 0
0.447341859341 -0.0346511676908 -0.0195829942822 255 0 0
0.268704026937 -0.0520463474095 0.181822657585 255 0 0
-0.390010684729 -0.0488341636956 0.867158591747 255 0 0
-0.0426974780858 -0.0234447326511 0.529447615147 255 0 0
-0.363063901663 -0.0392220951617 0.863307952881 255 0 0
-0.559198021889 -0.0902787521482 1.09761142731 255 0 0
0.440421253443 -0.025287732482 -0.180851817131 255 0 0
-0.489234298468 -0.0351540222764 0.603069722652 255 0 0
-0.318452954292 -0.0489868223667 1.07565903664 255 0 0
-0.0444810986519 -0.0230600461364 0.529463231564 255 0 0
0.24829980731 -0.0628940314054 -0.485683530569 255 0 0
0.0274469479918 -0.0271861124784 0.593079388142 255 0 0
0.304504841566 -0.0328337959945 -0.383970946074 255 0 0
0.43668320775 -0.0158769376576 -0.0895488336682 255 0 0
0.115899048746 -0.046542365104 -0.320892542601 255 0 0
0.397398799658 -0.026086403057 0.0892713144422 255 0 0
-0.497842639685 -0.0354219935834 1.03175592422 255 0 0
-0.522093653679 -0.0460344143212 1.00697374344 255 0 0
0.422612190247 -0.0109308967367 -0.0792393237352 255 0 0
0.43976649642 -0.0293862950057 -0.0370081402361 255 0 0
0.0266838092357 -0.0263156034052 0.593205332756 255 0 0
0.395201474428 -0.0220465604216 -0.19551359117 255 0 0
-0.0531973838806 -0.0409498885274 -1.12985384464 255 0 0
0.303921699524 -0.0316494591534 -0.384877860546 255 0 0
-0.524592161179 -0.0396659709513 0.881299316883 255 0 0
0.444074511528 -0.028863389045 0.11072550714 255 0 0
-0.364269882441 -0.0400500893593 0.863298356533 255 0 0
-0.337189942598 -0.0489567145705 1.07456612587 255 0 0
-0.386933684349 -0.0374630764127 0.824681937695 255 0 0
-0.132448673248 -0.0481080561876 1.03693056107 255 0 0
0.456673771143 -0.0309870224446 0.120184101164 255 0 0
-0.548320949078 -0.0712761059403 -0.977572023869 255 0 0
-0.24781472981 -0.0352137759328 0.863904833794 255 0 0
-0.072035625577 -0.0424013584852 -1.17649066448 255 0 0
-0.487399339676 -0.033226840198 0.602633178234 255 0 0
-0.484308481216 -0.0354720428586 0.874692797661 255 0 0
0.425647348166 -0.0156557541341 -0.141542449594 255 0 0
-0.237112313509 -0.0724895521998 -0.824477791786 255 0 0
0.205424129963 -0.0663526952267 -0.727390229702 255 0 0
-0.489921212196 -0.0321662463248 0.623018801212 255 0 0
-0.23249104619 -0.0368033275008 0.883073091507 255 0 0
-0.486718952656 -0.0381512567401 0.953745722771 255 0 0
0.489049971104 -0.0301725249738 0.117017775774 255 0 0
-0.526823461056 -0.0403949134052 0.8848285079 255 0 0
0.00287835183553 -0.0240960661322 0.59276920557 255 0 0
0.342958927155 -0.0235921759158 0.0579811297357 255 0 0
-0.174493193626 -0.0414280928671 1.00010454655 255 0 0
0.0544238463044 -0.0424671731889 -0.410524517298 255 0 0
0.0443273745477 -0.0274631790817 0.32167968154 255 0 0
0.0570013299584 -0.0463366918266 -0.242818012834 255 0 0
0.225098147988 -0.0623773746192 -0.513630211353 255 0 0
0.2956353724 -0.0244032144547 0.219687178731 255 0 0
0.156824424863 -0.0643279179931 -0.108010463417 255 0 0
0.0246807504445 -0.0250689703971 0.593995213509 255 0 0
0.243253067136 -0.0568444542587 -0.281633764505 255 0 0
-0.44808703661 -0.0599396824837 0.935588479042 255 0 0
-0.542462646961 -0.0497486777604 0.0136155579239 255 0 0
0.0581343211234 -0.0426228009164 -0.239974066615 255 0 0
0.00491246161982 -0.0263209268451 0.592807590961 255 0 0
0.382003217936 -0.0254056882113 0.0741785168648 255 0 0
-0.541043996811 -0.0503087826073 -0.393882960081 255 0 0
-0.00821476057172 -0.0267961937934 0.77201884985 255 0 0
-0.38329154253 -0.0570043958724 1.03830778599 255 0 0
0.0547459721565 -0.0387210547924 -0.277819722891 255 0 0
0.254863530397 -0.0815443694592 1.03212034702 255 0 0
0.373167157173 -0.0272361654788 0.141135782003 255 0 0
-0.489573210478 -0.0342240892351 0.603243052959 255 0 0
-0.335606008768 -0.0502806380391 1.07501316071 255 0 0
-0.248799309134 -0.0364231616259 0.863727033138 255 0 0
0.449364334345 -0.0271200779825 0.142977744341 255 0 0
0.201400980353 -0.0493608862162 0.157023742795 255 0 0
0.148304700851 -0.0467015728354 -0.43835619092 255 0 0
-0.143623009324 -0.0305633600801 -0.165070086718 255 0 0
0.304220795631 -0.0310442782938 -0.482584476471 255 0 0
0.451159268618 -0.0325149260461 -0.0308176502585 255 0 0
0.232389375567 -0.0607701800764 -0.517979085445 255 0 0
-0.248866081238 -0.0397614464164 0.863559246063 255 0 0
0.302890300751 -0.0316316373646 -0.384709179401 255 0 0
0.402109086514 -0.0185729432851 -0.182633072138 255 0 0
-0.0740683823824 -0.0255298260599 0.573828041553 255 0 0
0.116009436548 -0.0584043897688 -0.487296581268 255 0 0
-0.450217664242 -0.0469682328403 1.0299179554 255 0 0
-0.156452789903 -0.0305576808751 0.789484620094 255 0 0
0.257008016109 -0.0847372487187 1.03534936905 255 0 0
-0.294792771339 -0.0386358648539 -0.835934638977 255 0 0
-0.14381672442 -0.0340037941933 -0.429098963737 255 0 0
0.256961733103 -0.0564988479018 0.169923216105 255 0 0
-0.072735413909 -0.0271169170737 0.574030816555 255 0 0
0.052032276988 -0.0394055321813 -0.409499436617 255 0 0
-0.296228647232 -0.0748667642474 -0.817722201347 255 0 0
-0.0517397746444 -0.022921923548 0.602539479733 255 0 0
-0.39668032527 -0.0464158207178 1.07026529312 255 0 0
-0.0956994518638 -0.0269793514162 0.773921012878 255 0 0
0.22459346056 -0.0448614247143 1.03707122803 255 0 0
-0.37890791893 -0.0390359461308 0.852095663548 255 0 0
0.424789577723 -0.00951788015664 -0.0798584148288 255 0 0
0.306134045124 -0.0423381216824 -0.745859026909 255 0 0
-0.54861420393 -0.0683566331863 -0.611772656441 255 0 0
0.30348739028 -0.0317867733538 -0.482785969973 255 0 0
-0.137385979295 -0.0577177740633 1.01500093937 255 0 0
-0.198583334684 -0.0443652048707 0.995819330215 255 0 0
0.232082128525 -0.0505965575576 1.03884482384 255 0 0
0.279799044132 -0.047562610358 -0.542910516262 255 0 0
