ply
format ascii 1.0
comment https://github.com/EricCJoyce
element vertex 816
property float x
property float y
property float z
property uchar red
property uchar green
property uchar blue
end_header
0.433037102222 -0.00240446045063 0.160743385553 255 255 0
0.151067882776 -0.00500105926767 -0.0859643891454 255 255 0
0.454706370831 -0.0110378796235 -0.194060012698 255 255 0
0.446309328079 -0.0115142613649 -0.274590849876 255 255 0
-0.00631484761834 0.00928552635014 -0.153345614672 255 255 0
-0.274913847446 -0.00282770418562 -0.0558106154203 255 255 0
0.0453747957945 0.00611241068691 -0.272551447153 255 255 0
0.511727690697 -0.00726408325136 0.31605130434 255 255 0
0.444449365139 -0.00416461518034 0.141937062144 255 255 0
0.454299151897 -0.0110433017835 -0.13296765089 255 255 0
0.443898767233 -0.00318291573785 0.141654700041 255 255 0
0.434053421021 -0.00171503832098 0.160605683923 255 255 0
0.526576340199 -0.00483527965844 0.155671730638 255 255 0
0.456566333771 -0.00484391348436 0.178504183888 255 255 0
0.00631090532988 0.0109717873856 -0.268271058798 255 255 0
0.233898773789 -0.00343447132036 -0.072038821876 255 255 0
0.413227766752 0.00312441959977 0.330327153206 255 255 0
0.453227102757 -0.0129010714591 -0.282783865929 255 255 0
-0.213015064597 0.0534752346575 -0.178163439035 255 255 0
0.164519652724 -0.00552470749244 -0.112682417035 255 255 0
0.299377858639 -0.00197652727365 0.112318538129 255 255 0
0.494991272688 -0.00822217855603 0.280702680349 255 255 0
0.454694479704 -0.0102083552629 -0.109929859638 255 255 0
0.181284055114 -0.00371921202168 -0.0829214975238 255 255 0
0.460301399231 -0.00806553475559 0.0938311517239 255 255 0
0.503453850746 -0.0200999155641 -0.433416873217 255 255 0
0.426347047091 0.00174734997563 0.34894067049 255 255 0
0.48100951314 -0.00552421016619 0.344644159079 255 255 0
0.459409326315 -0.00643155351281 0.0938350632787 255 255 0
-0.0470699295402 0.0159115549177 -0.268653035164 255 255 0
0.184867173433 -0.00341774779372 -0.0565672144294 255 255 0
0.261449337006 -0.00365573284216 -0.062769241631 255 255 0
-0.304717153311 -0.00303670042194 -0.0680377557874 255 255 0
0.511304080486 -0.00740963313729 0.318980306387 255 255 0
0.458952814341 -0.00208814605139 0.255637735128 255 255 0
0.0292061679065 0.0100334845483 -0.175358042121 255 255 0
0.511465013027 -0.00929227937013 0.316304057837 255 255 0
0.512196302414 -0.00861130002886 0.302994579077 255 255 0
0.512783288956 -0.00709707988426 0.30285218358 255 255 0
-0.0193136259913 -0.00178105488885 0.118166401982 255 255 0
0.480818063021 -0.0068390625529 0.244694977999 255 255 0
0.413770467043 0.0015048723435 0.335897147655 255 255 0
-0.0492005906999 0.015962857753 -0.268506407738 255 255 0
0.450384497643 -0.00585367530584 0.0326858796179 255 255 0
0.488074451685 -0.00776394922286 0.33476549387 255 255 0
0.23140001297 -0.00596094550565 -0.134738206863 255 255 0
-0.18925100565 0.0103375930339 -0.263876199722 255 255 0
-0.227699741721 -0.00165661948267 0.233739450574 255 255 0
0.449773460627 -0.00716880802065 0.0135173061863 255 255 0
0.521243929863 -0.00254392647184 0.132676467299 255 255 0
-0.254277914762 0.00061679026112 -0.211600989103 255 255 0
0.456955999136 -0.00676897913218 0.0568267554045 255 255 0
0.482006967068 -0.00592184765264 0.344777017832 255 255 0
0.458333790302 -0.00637642899528 0.129367828369 255 255 0
0.460624217987 -0.0064201313071 0.0943373143673 255 255 0
0.511463880539 -0.00974368862808 0.155822515488 255 255 0
0.454427659512 -0.0087773501873 -0.0722506716847 255 255 0
-0.260780513287 0.00232991506346 -0.115601204336 255 255 0
0.235792070627 -0.00320436386392 -0.072582192719 255 255 0
0.454382419586 -0.00976938474923 -0.0716129392385 255 255 0
0.512750685215 -0.00886831432581 0.16348259151 255 255 0
0.282602161169 -0.00583986146376 -0.122480906546 255 255 0
0.229780524969 -0.00306833535433 -0.0872033908963 255 255 0
0.447960406542 -0.0088500007987 -0.203325271606 255 255 0
0.493905335665 -0.0115432441235 0.110690966249 255 255 0
0.23454014957 -0.00454207044095 -0.108677335083 255 255 0
0.199559941888 -0.00460970355198 -0.10710260272 255 255 0
0.235767424107 -0.00529289385304 -0.112577006221 255 255 0
0.453952342272 -0.0099149858579 -0.0904876366258 255 255 0
0.152675047517 -0.00448506977409 -0.113149903715 255 255 0
0.0211065839976 0.00888836942613 -0.170535191894 255 255 0
-0.00888619292527 0.00862479489297 -0.15300565958 255 255 0
0.00605196552351 0.0111074717715 -0.271695375443 255 255 0
0.522794663906 0.0153616312891 0.127011984587 255 255 0
0.297528415918 -0.004700738471 -0.0872966647148 255 255 0
0.410628408194 0.00300593790598 0.328436940908 255 255 0
-0.0125057762489 0.00912205595523 -0.153380647302 255 255 0
0.447175264359 -0.00774696562439 -0.122030377388 255 255 0
0.300467789173 -0.00244095362723 0.0673167929053 255 255 0
0.165900290012 -0.00357736065052 -0.0648184716702 255 255 0
0.18421946466 -0.00476711057127 -0.0578702278435 255 255 0
0.294528365135 -0.00454638851807 -0.0859828963876 255 255 0
0.00691275717691 0.0110925957561 -0.267324656248 255 255 0
0.452842324972 -0.0136073287576 -0.328899055719 255 255 0
0.525647163391 0.0153154125437 0.129792690277 255 255 0
0.231141701341 -0.0038196395617 -0.0867784321308 255 255 0
0.44851487875 -0.00859695579857 -0.0798694118857 255 255 0
0.452385902405 -0.0127459643409 -0.329592913389 255 255 0
0.447782874107 -0.00545260682702 0.193827673793 255 255 0
0.510644078255 -0.0109334019944 -0.384653270245 255 255 0
0.459943413734 -0.0029068721924 0.301731109619 255 255 0
0.511877119541 -0.0105694765225 0.162518799305 255 255 0
0.458958894014 -0.00144014519174 0.302162766457 255 255 0
0.423857808113 0.00257020420395 0.346187412739 255 255 0
0.511108458042 -0.00957224238664 0.161225274205 255 255 0
0.411218315363 0.00228442181833 0.334488898516 255 255 0
0.450848400593 -0.00516799790785 0.103712573647 255 255 0
-0.259977310896 0.00249456032179 -0.11871368438 255 255 0
0.205913171172 -0.00376114901155 -0.0931484848261 255 255 0
0.235233590007 -0.00455445889384 -0.0721768736839 255 255 0
-0.30227163434 -0.00382668874227 -0.0565388835967 255 255 0
-0.224363878369 0.0119811510667 -0.11253259331 255 255 0
0.457264453173 -0.00510442256927 0.1957346946 255 255 0
0.45012396574 -0.0046567004174 0.0913563594222 255 255 0
-0.0368095375597 -0.00970376469195 -0.356285572052 255 255 0
0.45247811079 -0.0146225448698 -0.305111259222 255 255 0
0.481294870377 -0.00725278491154 0.291216373444 255 255 0
0.447048813105 -0.00875928066671 -0.162992328405 255 255 0
0.511230766773 -0.00926943961531 0.231053292751 255 255 0
-0.226390644908 -0.00161021121312 0.233964249492 255 255 0
-0.0198671314865 -0.00144472904503 0.116422660649 255 255 0
0.459324270487 -0.00362361222506 0.289535373449 255 255 0
0.493393033743 -0.0101498719305 0.11064594239 255 255 0
0.45739710331 -0.00152755517047 0.22306804359 255 255 0
0.278763055801 -0.00431647477672 -0.107348412275 255 255 0
0.0279721450061 0.00801149103791 -0.125085011125 255 255 0
0.449715673923 -0.00675370218232 0.0496033653617 255 255 0
-0.0362679213285 0.0482707321644 -0.18859359622 255 255 0
0.447601079941 -0.00353317568079 0.226945355535 255 255 0
-0.0395496897399 -0.00123241008259 0.142459750175 255 255 0
0.0430288724601 0.00897539872676 -0.172974571586 255 255 0
-0.223752826452 0.0130121838301 -0.112451501191 255 255 0
0.166813015938 -0.00547575997189 -0.11293168366 255 255 0
0.227248802781 -0.00621829554439 -0.140450775623 255 255 0
-0.0131729440764 0.0089063718915 -0.149281039834 255 255 0
-0.205962717533 0.0132726728916 -0.107141181827 255 255 0
0.538326382637 -0.000994230504148 0.323715031147 255 255 0
0.167101919651 -0.0055653299205 -0.114240728319 255 255 0
0.419521003962 0.00295464624651 0.335071057081 255 255 0
0.509315788746 -0.00940834730864 0.147138789296 255 255 0
0.525593459606 -0.0050350362435 0.156118825078 255 255 0
-0.150498241186 0.055874157697 -0.216639846563 255 255 0
0.452804177999 -0.00327881844714 0.196168169379 255 255 0
0.251108556986 -0.00548299495131 -0.141790986061 255 255 0
0.457375884056 -0.00225130445324 0.228884801269 255 255 0
0.0288940295577 0.00713018514216 -0.127159506083 255 255 0
-0.0332852192223 0.0520926080644 -0.180837184191 255 255 0
-0.0343744345009 0.0514641068876 -0.181897178292 255 255 0
0.446439653635 -0.0159659851342 -0.432741224766 255 255 0
0.443367630243 -0.00641473289579 -0.0997137799859 255 255 0
0.0582257658243 -0.00295675592497 -0.316684067249 255 255 0
0.21955318749 -0.00572467828169 -0.144473433495 255 255 0
0.452702999115 -0.0116686448455 -0.283296912909 255 255 0
0.51005589962 -0.00961693003774 0.195057749748 255 255 0
0.260897666216 -0.00542508019134 -0.122817128897 255 255 0
0.476380854845 -0.00580782722682 0.278032690287 255 255 0
0.539110600948 -0.00243184179999 0.32440251112 255 255 0
0.509604692459 -0.0102561991662 0.180493429303 255 255 0
0.100160330534 0.00285295560025 -0.165542289615 255 255 0
0.022289019078 0.0089413318783 -0.170240551233 255 255 0
0.234444662929 -0.00384942046367 -0.110565178096 255 255 0
0.0360844805837 0.00776288937777 -0.127521961927 255 255 0
-0.0739061757922 -0.00730252685025 -0.346146017313 255 255 0
-0.0183664895594 0.0102934036404 -0.140024647117 255 255 0
0.510388016701 -0.00979456584901 0.15569883585 255 255 0
0.0436156615615 0.00857641547918 -0.171374171972 255 255 0
-0.0162092335522 0.00869594328105 -0.149324506521 255 255 0
-0.0259049590677 0.0274276342243 -0.196498006582 255 255 0
0.44605538249 -0.0140844192356 -0.432828068733 255 255 0
0.0202645100653 0.00769231887534 -0.167858958244 255 255 0
0.234891310334 -0.00358597235754 -0.107659816742 255 255 0
-0.0131171531975 0.0149504346773 -0.261327892542 255 255 0
0.276158809662 -0.00140560127329 0.129497885704 255 255 0
0.461035072803 -0.00792681332678 0.0950308442116 255 255 0
0.485731810331 -0.00766790052876 0.252263188362 255 255 0
0.509875237942 -0.00987723562866 0.149880468845 255 255 0
0.449936836958 -0.00947609264404 -0.11741412431 255 255 0
0.421916604042 0.00260227150284 0.33557626605 255 255 0
0.456013143063 -0.00826574582607 0.00328772049397 255 255 0
-0.121402919292 0.0457333996892 -0.17390601337 255 255 0
0.457306563854 -0.00845147389919 0.00234029255807 255 255 0
0.490767896175 -0.0108665786684 0.109956793487 255 255 0
0.0348941683769 0.00613419292495 -0.14449031651 255 255 0
-0.306286603212 -0.00265712314285 -0.0773329511285 255 255 0
0.448780268431 -0.00510018831119 0.122492909431 255 255 0
0.185155943036 -0.00349668343551 -0.054657522589 255 255 0
0.494809120893 -0.00728216115385 0.348852664232 255 255 0
0.0352247804403 0.00791734363884 -0.144589781761 255 255 0
-0.0733129158616 -0.00885891821235 -0.376374423504 255 255 0
0.0202158726752 0.00878198444843 -0.167776659131 255 255 0
0.117696076632 -0.00582428462803 -0.326219052076 255 255 0
0.464224427938 -0.00788940861821 0.092349678278 255 255 0
0.454029083252 -0.00997604057193 -0.133335277438 255 255 0
0.192010819912 -0.00496561964974 -0.104971177876 255 255 0
-0.333876639605 -0.00216839741915 -0.0682670548558 255 255 0
0.454728245735 -0.0125603508204 -0.238608568907 255 255 0
-0.264314860106 0.0012364560971 -0.117216795683 255 255 0
-0.01120352 0.0191124081612 -0.20029656589 255 255 0
0.0513119474053 0.00999768078327 -0.121039196849 255 255 0
0.453331679106 -0.00956788938493 -0.154238402843 255 255 0
-0.294559031725 -0.0030095463153 -0.0729210823774 255 255 0
0.434553533792 -0.00139211129863 0.14895991981 255 255 0
0.445749759674 -0.0067466055043 -0.122154384851 255 255 0
0.116911329329 -0.00752269942313 -0.328179180622 255 255 0
-0.021124355495 0.00868424680084 -0.140538439155 255 255 0
0.452584683895 -0.012144593522 -0.267630785704 255 255 0
0.297291010618 -0.00500057125464 -0.0808694586158 255 255 0
0.534963905811 -0.00142471294384 0.324607431889 255 255 0
-0.0441110394895 -0.00871234387159 -0.376391768456 255 255 0
0.456526637077 -0.00287609244697 0.2285246104 255 255 0
-0.0564265027642 -0.00121416011825 0.131603494287 255 255 0
0.476619839668 -0.0141017846763 -0.0917973890901 255 255 0
0.448172956705 -0.00436969147995 0.193671554327 255 255 0
0.441506534815 -0.00301905348897 0.194314867258 255 255 0
0.453162968159 -0.0128415981308 -0.304230779409 255 255 0
-0.224301040173 0.0551014207304 -0.177925422788 255 255 0
0.448035955429 -0.0107383625582 -0.290558069944 255 255 0
0.453946471214 -0.00993495434523 -0.175827264786 255 255 0
0.448574274778 -0.00621333764866 0.032560441643 255 255 0
0.506409466267 -0.0118632651865 -0.10104238987 255 255 0
0.226670265198 -0.00514354044572 -0.140501588583 255 255 0
0.495123744011 -0.0204708073288 -0.385241478682 255 255 0
-0.264271557331 0.00214028451592 -0.136772692204 255 255 0
-0.100545465946 -0.00129398086574 0.231926321983 255 255 0
-0.253490895033 -0.000137206880026 -0.161541253328 255 255 0
0.0528402626514 0.0094804149121 -0.120969079435 255 255 0
0.0460457876325 0.00930698122829 -0.167887985706 255 255 0
0.0174563750625 0.00711263902485 -0.126675069332 255 255 0
0.285335689783 -0.00483693787828 -0.0750563964248 255 255 0
0.44481125474 -0.00429886532947 0.0971116498113 255 255 0
-0.141334980726 0.0165988616645 -0.268693506718 255 255 0
-0.0114970244467 0.0183729920536 -0.184265553951 255 255 0
-0.016567196697 -0.000631338683888 0.143519207835 255 255 0
0.453478693962 -0.0082107745111 -0.0712996423244 255 255 0
0.4581772089 -0.00909886043519 0.0230776723474 255 255 0
0.262516468763 -0.00464688520879 -0.110169291496 255 255 0
0.539132893085 -0.000923774146941 0.33819103241 255 255 0
0.449881643057 -0.00647193426266 -0.0013056860771 255 255 0
0.0415081456304 0.00836522504687 -0.173726990819 255 255 0
0.0355116799474 0.00909184385091 -0.123185038567 255 255 0
0.191262483597 -0.00390741927549 -0.0979142785072 255 255 0
-0.016474282369 -0.00163930573035 0.143534198403 255 255 0
0.425508260727 0.00312315556221 0.335085630417 255 255 0
0.0459383763373 0.00746300909668 -0.140391230583 255 255 0
0.455299735069 -0.0128446752205 -0.239849418402 255 255 0
0.22943687439 -0.00339722889476 -0.0769703611732 255 255 0
0.236693441868 -0.00592872453853 -0.140948623419 255 255 0
0.447007387877 -0.0107664130628 -0.290556132793 255 255 0
0.495046645403 -0.00872697494924 0.348640084267 255 255 0
0.178840488195 -0.00371704227291 -0.0570251457393 255 255 0
0.178657352924 -0.0037108224351 -0.0552030876279 255 255 0
0.433585226536 -0.00185853580479 0.149112731218 255 255 0
-0.0167292971164 -0.000565008842386 0.141964390874 255 255 0
0.0174198504537 0.00872061122209 -0.126254051924 255 255 0
0.45122858882 -0.0167712960392 -0.424155861139 255 255 0
0.485673487186 -0.00903585739434 0.252984434366 255 255 0
0.447118103504 -0.00485990336165 0.0909495577216 255 255 0
0.447854578495 -0.011699588038 -0.313388854265 255 255 0
0.105681009591 0.00202933186665 -0.0910787284374 255 255 0
-0.262184709311 0.00179765652865 -0.107222646475 255 255 0
-0.0190188661218 -0.000294519704767 0.142876833677 255 255 0
0.0347144566476 0.0089606102556 -0.121193878353 255 255 0
0.427766799927 0.00175244535785 0.333769768476 255 255 0
0.444433897734 -0.00716390041634 -0.12190271914 255 255 0
0.45226791501 -0.016367956996 -0.443103164434 255 255 0
0.477269887924 -0.00539133744314 0.210178539157 255 255 0
0.505377948284 -0.0145245678723 -0.214875891805 255 255 0
-0.263509064913 0.00116081698798 -0.124286010861 255 255 0
0.255342781544 -0.00444769207388 -0.076094456017 255 255 0
0.506694853306 -0.0162061732262 -0.348735809326 255 255 0
0.447698652744 -0.00600025756285 0.0137849692255 255 255 0
0.197098270059 -0.00516145629808 -0.139416605234 255 255 0
0.443997919559 -0.0105089144781 -0.274223744869 255 255 0
0.54001969099 -0.000958425400313 0.323979049921 255 255 0
-0.219829186797 0.0107571780682 -0.252845227718 255 255 0
-0.304368853569 -0.0040371674113 -0.0683538541198 255 255 0
0.44511243701 -0.00807658676058 -0.20324139297 255 255 0
0.0135849202052 0.00853180326521 -0.157045483589 255 255 0
0.176923140883 -0.00391307007521 -0.0506282560527 255 255 0
0.448453068733 -0.00856276694685 -0.163204237819 255 255 0
0.451174169779 -0.015739845112 -0.40019980073 255 255 0
0.0440770722926 0.00970663223416 -0.167710676789 255 255 0
-0.222604513168 0.0104887615889 -0.0872626081109 255 255 0
0.446912586689 -0.00562702631578 0.0496605634689 255 255 0
0.444073915482 -0.00309925503097 0.0970419049263 255 255 0
0.0297522973269 0.00685233110562 -0.144861206412 255 255 0
0.478831112385 -0.00881034322083 0.158026635647 255 255 0
-0.0896373093128 -0.00796351768076 -0.351513564587 255 255 0
-0.150015458465 0.05923634395 -0.244122549891 255 255 0
-0.0164976008236 0.0113045508042 -0.246811598539 255 255 0
0.449005097151 -0.0099667198956 -0.185132816434 255 255 0
0.44894978404 -0.00629510683939 0.1549128443 255 255 0
-0.0590316355228 0.0525970496237 -0.188266709447 255 255 0
-0.25185406208 0.00108651060145 -0.159311369061 255 255 0
0.109537191689 -0.00221680104733 -0.29581207037 255 255 0
0.485780775547 -0.00697848806158 0.23821516335 255 255 0
0.479157865047 -0.00815261993557 0.15708515048 255 255 0
0.507249712944 -0.0124052902684 -0.101282477379 255 255 0
0.177373707294 -0.0044420119375 -0.0566638447344 255 255 0
0.459862351418 -0.00223643146455 0.289435535669 255 255 0
0.4446182549 -0.00644872710109 -0.0796427950263 255 255 0
0.538326978683 -0.00167943094857 0.338739484549 255 255 0
0.446630477905 -0.00839575473219 -0.0598978921771 255 255 0
-0.202160209417 0.0114446105435 -0.104947417974 255 255 0
-0.0173794254661 0.0130571974441 -0.242900550365 255 255 0
0.506486713886 -0.0142810381949 -0.133754879236 255 255 0
0.453695952892 -0.0137732522562 -0.33006310463 255 255 0
0.223290845752 -0.00589395174757 -0.150014698505 255 255 0
0.508529961109 -0.00965807493776 0.181004613638 255 255 0
0.0277117807418 0.00789347477257 -0.144932210445 255 255 0
0.454771101475 -0.0112088331953 -0.178347438574 255 255 0
-0.0295496080071 -0.00170559738763 0.116143792868 255 255 0
0.177389860153 -0.0043187038973 -0.0594923049212 255 255 0
0.111197821796 -0.00349572300911 -0.295647293329 255 255 0
-0.192165434361 0.00907185580581 -0.251719802618 255 255 0
-0.0922078043222 -0.00934706348926 -0.340696275234 255 255 0
-0.0159477591515 0.00963380653411 -0.252724170685 255 255 0
0.226196452975 -0.00535665359348 -0.142467007041 255 255 0
0.476251363754 -0.0131399426609 -0.0917337685823 255 255 0
-0.0194310769439 0.0406776480377 -0.175663009286 255 255 0
-0.220455214381 0.0538541376591 -0.175907030702 255 255 0
-0.224158346653 0.0119077684358 -0.0884866937995 255 255 0
0.103116892278 0.00168012536597 -0.090835146606 255 255 0
0.457098037004 -0.00775803253055 0.0781830176711 255 255 0
-0.0928753316402 -0.00803180318326 -0.341119468212 255 255 0
0.516287982464 -0.00761456601322 0.155013889074 255 255 0
0.444502294064 -0.00243940996006 0.238376691937 255 255 0
0.0353298299015 0.00832965783775 -0.122194863856 255 255 0
0.45433601737 -0.00337216164917 0.195157587528 255 255 0
-0.0163675956428 -0.00163045257796 0.142227977514 255 255 0
0.104420416057 0.00175837113056 -0.0912421196699 255 255 0
0.439317792654 -0.00159713788889 0.233267173171 255 255 0
-0.0213881265372 0.00977848377079 -0.24644729495 255 255 0
0.0451211445034 0.00970599520952 -0.151646867394 255 255 0
0.274707466364 -0.00590896094218 -0.115673087537 255 255 0
0.43246948719 -0.00244333897717 0.149118766189 255 255 0
-0.333318382502 -0.00382068636827 -0.0685676410794 255 255 0
-0.128669604659 0.0232596881688 -0.183020338416 255 255 0
-0.0205652490258 0.00744795706123 -0.253068655729 255 255 0
0.51740437746 -0.00873307231814 0.15504693985 255 255 0
0.178489357233 -0.00384335801937 -0.0508190318942 255 255 0
0.443421274424 -0.0136761339381 -0.433143377304 255 255 0
0.446310818195 -0.00765440892428 -0.0590148344636 255 255 0
0.0462983995676 0.00874167215079 -0.151710942388 255 255 0
0.462046742439 -0.00469117518514 0.185969308019 255 255 0
0.458279669285 -0.00447742408141 0.195694893599 255 255 0
0.478357583284 -0.0103980144486 0.122405178845 255 255 0
-0.307083070278 -0.00298585183918 -0.0706185176969 255 255 0
0.440281689167 -0.0012541358592 0.239524558187 255 255 0
0.454422295094 -0.0111366538331 -0.176061302423 255 255 0
0.508834540844 -0.010293463245 0.145782127976 255 255 0
0.175557002425 -0.00348291709088 -0.0512475483119 255 255 0
0.50779825449 -0.0162453688681 -0.353126585484 255 255 0
0.223622113466 -0.00593180581927 -0.139982998371 255 255 0
-0.203503936529 0.00987681653351 -0.254832297564 255 255 0
-0.263710230589 0.00140718696639 -0.140070974827 255 255 0
0.451894789934 -0.0145277213305 -0.376603215933 255 255 0
0.537455618382 -0.00159335508943 0.336312294006 255 255 0
0.440172225237 -0.00137362431269 0.240823641419 255 255 0
0.510019958019 -0.00818190537393 0.281615018845 255 255 0
0.506199121475 -0.0173575412482 -0.349956214428 255 255 0
-0.0444029197097 0.0160972494632 -0.169752776623 255 255 0
0.452337414026 -0.0172639861703 -0.444992810488 255 255 0
-0.0174150634557 0.0099687082693 -0.145819723606 255 255 0
0.442880421877 -0.00180006434675 0.235819518566 255 255 0
0.457216829062 -0.00768847903237 0.0755570754409 255 255 0
-0.0426138006151 0.0159776527435 -0.167633265257 255 255 0
0.458758741617 -0.00478561921045 0.186003059149 255 255 0
0.183979898691 -0.00673342030495 -0.139627054334 255 255 0
0.454311698675 -0.00863519776613 -0.0495000854135 255 255 0
-0.224516749382 0.0109481886029 -0.0891087800264 255 255 0
0.189590781927 -0.00455974601209 -0.0714875012636 255 255 0
0.458727836609 -0.00643796240911 0.0785970315337 255 255 0
0.500125825405 -0.010476609692 0.164868429303 255 255 0
0.446394234896 -0.0074365939945 -0.16344819963 255 255 0
0.507017731667 -0.0128445457667 -0.133818879724 255 255 0
0.398812025785 0.00261641317047 0.318847924471 255 255 0
0.190475866199 -0.00479258550331 -0.0721946954727 255 255 0
0.510738134384 -0.00864779483527 0.217117533088 255 255 0
-0.112351037562 0.0187206994742 -0.168600261211 255 255 0
0.506570875645 -0.0133309066296 -0.101088523865 255 255 0
-0.471578121185 0.00011312609422 0.231274098158 255 255 0
0.476983338594 -0.00753911118954 0.158679515123 255 255 0
0.0917924121022 0.00674745906144 -0.276792436838 255 255 0
0.452787607908 -0.00254114554264 0.218863844872 255 255 0
0.475545614958 -0.00586699834093 0.209400862455 255 255 0
0.507737278938 -0.0120106069371 -0.0705846473575 255 255 0
0.471350103617 -0.00993602816015 0.0923003032804 255 255 0
0.299999982119 -0.00409539416432 -0.0131340650842 255 255 0
0.0421462580562 0.0082673560828 -0.143883287907 255 255 0
0.135275676847 0.00024709632271 -0.064930267632 255 255 0
-0.308480978012 -0.00782977603376 -0.29922708869 255 255 0
-0.0341584347188 0.0491268970072 -0.186442494392 255 255 0
-0.321665912867 -0.00271359877661 -0.0427360273898 255 255 0
0.509657859802 -0.00866570696235 0.230850309134 255 255 0
-0.112482994795 0.0490480512381 -0.176776260138 255 255 0
0.452732771635 -0.0146800763905 -0.350304067135 255 255 0
0.50547093153 -0.0126969469711 -0.133813276887 255 255 0
0.145006328821 -0.00268985610455 -0.0824521705508 255 255 0
0.196683347225 -0.00691320002079 -0.140093609691 255 255 0
-0.0438528992236 0.0175961311907 -0.169791132212 255 255 0
-0.220232993364 0.00976915564388 -0.253596901894 255 255 0
-0.223366886377 0.0566574707627 -0.181059882045 255 255 0
-0.0724034979939 -0.00775988772511 -0.376863390207 255 255 0
0.444208413363 -0.00796023756266 -0.162769258022 255 255 0
0.471926271915 -0.00971716828644 0.0900778099895 255 255 0
0.475798308849 -0.00550390454009 0.261495679617 255 255 0
-0.113550253212 0.048383064568 -0.176588475704 255 255 0
-0.106279566884 -0.00472218729556 -0.294120311737 255 255 0
-0.152523159981 0.0191715285182 -0.260058730841 255 255 0
-0.105978146195 -0.00761524401605 -0.359159499407 255 255 0
0.455451279879 -0.00886879116297 -0.0133949732408 255 255 0
0.298343241215 -0.00554498797283 -0.0683847442269 255 255 0
0.487186431885 -0.00977427139878 0.270112663507 255 255 0
0.45322072506 -0.0150465900078 -0.348291695118 255 255 0
-0.305680811405 -0.00282906275243 -0.0731875747442 255 255 0
0.189711883664 -0.00467500649393 -0.0902877300978 255 255 0
-0.241144984961 0.000899291306268 -0.208504319191 255 255 0
0.480009704828 -0.0075704487972 0.174457103014 255 255 0
0.110284432769 -0.00247054803185 -0.29509177804 255 255 0
-0.224272191525 0.0534520745277 -0.172267660499 255 255 0
0.444239735603 -0.00262661487795 0.244837224483 255 255 0
0.223126113415 -0.0050471262075 -0.140112429857 255 255 0
0.190999954939 -0.00474055996165 -0.109536737204 255 255 0
-0.12758859992 0.0238201562315 -0.180388897657 255 255 0
0.178920894861 -0.0034531604033 -0.0594747848809 255 255 0
-0.251877844334 0.000293349381536 -0.143494531512 255 255 0
0.188829392195 -0.00494647445157 -0.0634795948863 255 255 0
0.446021169424 -0.00322245596908 0.237619191408 255 255 0
-0.0217865742743 0.00911391992122 -0.134413972497 255 255 0
-0.00586046557873 0.00654022721574 -0.283567994833 255 255 0
0.442331790924 -0.00382579118013 0.154779925942 255 255 0
-0.191843599081 0.0152288870886 -0.184173643589 255 255 0
0.432883501053 0.0014324139338 0.333840250969 255 255 0
0.296144723892 -0.00311611033976 0.0749855488539 255 255 0
-0.0460099130869 0.0167071409523 -0.169121742249 255 255 0
0.0439966991544 -0.00420521851629 -0.298125237226 255 255 0
0.521199405193 -0.0071315378882 0.2578086555 255 255 0
-0.334120750427 -0.00327743613161 -0.0443472228944 255 255 0
0.189222201705 -0.00570626510307 -0.128194272518 255 255 0
-0.193673431873 -9.31411632337e-05 -0.313134968281 255 255 0
0.444858700037 -0.0120990164578 -0.317367494106 255 255 0
-0.0750117599964 0.0489511229098 -0.171108990908 255 255 0
0.453452289104 -0.0168740339577 -0.445744633675 255 255 0
0.452654957771 -0.0158455446362 -0.390123814344 255 255 0
0.0222671478987 0.00667829252779 -0.141028702259 255 255 0
0.434394419193 0.000340299768141 0.3347453475 255 255 0
0.44059419632 -0.00166477623861 0.234980523586 255 255 0
0.519962728024 -0.00795954652131 0.164854809642 255 255 0
0.0158611647785 0.00897452048957 -0.12497407198 255 255 0
0.187481373549 -0.00448888679966 -0.0719451978803 255 255 0
-0.148786887527 0.0108330585063 -0.275546818972 255 255 0
0.297843426466 -0.00240885582753 0.0770799815655 255 255 0
0.440006703138 0.00170203577727 0.332341551781 255 255 0
0.516656637192 -0.00776034966111 0.201295658946 255 255 0
0.505414962769 -0.0167135391384 -0.215357288718 255 255 0
0.458929210901 -0.00554630951956 0.159901067615 255 255 0
0.187512874603 -0.00407623872161 -0.054798848927 255 255 0
0.298564016819 -0.00359558942728 -0.0680002644658 255 255 0
-0.0169042870402 0.0101461019367 -0.257639467716 255 255 0
0.527791023254 -0.00508823618293 0.191359698772 255 255 0
-0.107699401677 -0.00106266641524 -0.289466887712 255 255 0
-0.0447753369808 0.0167340543121 -0.168946996331 255 255 0
0.144727870822 -0.00220439443365 -0.0988448113203 255 255 0
0.47435772419 -0.00895307958126 0.115497902036 255 255 0
-0.391486525536 -0.00169070251286 0.236997649074 255 255 0
-0.106017425656 -0.00155921804253 -0.303307414055 255 255 0
-0.246711447835 -0.000468601414468 -0.217070475221 255 255 0
0.488578021526 -0.0106474300846 0.106044262648 255 255 0
-0.0831862688065 0.0534001067281 -0.17868052423 255 255 0
0.52007740736 -0.00835639052093 0.162898972631 255 255 0
0.446753770113 -0.0124014047906 -0.383524268866 255 255 0
0.187662541866 -0.00442248955369 -0.128087684512 255 255 0
0.0468026027083 -0.00746360421181 -0.327377378941 255 255 0
0.444724231958 -0.00493977963924 -0.00112280482426 255 255 0
0.185071334243 -0.00467876996845 -0.104251079261 255 255 0
0.438715666533 0.0017867902061 0.329683303833 255 255 0
-0.220699265599 0.0107112657279 -0.253602087498 255 255 0
-0.0548305548728 0.0458327457309 -0.169907480478 255 255 0
0.446529477835 -0.0127071095631 -0.323170542717 255 255 0
0.0720497816801 -0.00353608559817 -0.295416623354 255 255 0
0.0674797743559 -0.00469390768558 -0.295147240162 255 255 0
0.059994738549 -0.00305528566241 -0.291465252638 255 255 0
0.322897076607 -3.42287967214e-05 0.126308485866 255 255 0
0.29632332921 -0.0041366298683 -0.0686171725392 255 255 0
-0.461229383945 -0.00082413374912 0.23152884841 255 255 0
-0.215898096561 0.00119080103468 -0.0632350221276 255 255 0
0.243067458272 -0.00496162520722 -0.103726699948 255 255 0
0.543287158012 0.0013061510399 0.147688269615 255 255 0
0.298998206854 -0.00370269990526 -0.0653826966882 255 255 0
-0.109273679554 0.0468936040998 -0.172692030668 255 255 0
0.445518702269 -0.0122782727703 -0.320855855942 255 255 0
0.516494989395 -0.00882170535624 0.224497482181 255 255 0
0.452691048384 -0.0136952186003 -0.35147690773 255 255 0
0.439479887486 0.00148822006304 0.336703419685 255 255 0
-0.331579715014 -0.00349555327557 -0.0746195092797 255 255 0
-0.0955697521567 0.0527841076255 -0.181840330362 255 255 0
-0.1884444803 -0.00272449105978 0.233783781528 255 255 0
-0.186348333955 0.00923211500049 -0.272995769978 255 255 0
0.453472524881 -0.0137572390959 -0.349632829428 255 255 0
-0.193351045251 0.0124580925331 -0.174727514386 255 255 0
0.0709333047271 -0.00352657586336 -0.296316862106 255 255 0
0.543547868729 -0.000987415551208 0.155252933502 255 255 0
0.0533273257315 0.00996193196625 -0.146440148354 255 255 0
0.395508676767 0.00320383836515 0.314730167389 255 255 0
0.521345078945 -0.00645240349695 0.112080611289 255 255 0
0.0529462099075 0.00901838298887 -0.153659582138 255 255 0
-0.238026469946 -0.00168770621531 0.228146329522 255 255 0
-0.190739363432 -0.00180412561167 -0.315148234367 255 255 0
0.215478554368 -0.00491194007918 -0.146491736174 255 255 0
0.507000744343 -0.0104270614684 0.168041408062 255 255 0
0.454312801361 -0.0155371483415 -0.350257843733 255 255 0
-0.0584191307425 0.0500265695155 -0.171986579895 255 255 0
0.29677477479 -0.00224077911116 0.0727325379848 255 255 0
-0.180217370391 0.0112772257999 -0.0903241559863 255 255 0
0.0230583231896 0.00747153488919 -0.263200759888 255 255 0
-0.0530534088612 -0.00879885349423 -0.33987107873 255 255 0
-0.0816419124603 0.0166532844305 -0.268940031528 255 255 0
0.520262539387 -0.0055571324192 0.112363867462 255 255 0
-0.310222417116 -0.00623520929366 -0.301524698734 255 255 0
0.519297897816 -0.0071229073219 0.111447520554 255 255 0
-0.23925627768 -0.00165745185222 0.227941349149 255 255 0
-0.259089022875 0.00167188770138 -0.159968167543 255 255 0
0.43213185668 -0.00215686392039 0.154753595591 255 255 0
-0.173320651054 0.00648802798241 -0.281249016523 255 255 0
0.299271047115 -0.00376232038252 -0.0326486863196 255 255 0
0.210613593459 -0.00474653672427 -0.140140891075 255 255 0
0.184550985694 -0.00491911359131 -0.10625230521 255 255 0
-0.112402759492 -0.00767395365983 -0.361852586269 255 255 0
-0.0864967629313 0.017453212291 -0.167677387595 255 255 0
-0.196081846952 0.0112265627831 -0.227702975273 255 255 0
-0.0104140583426 0.0156380981207 -0.236937791109 255 255 0
-0.203621476889 0.0125065036118 -0.0888912007213 255 255 0
-0.0839347317815 0.0175421331078 -0.168039828539 255 255 0
0.440584599972 0.00162649701815 0.331033170223 255 255 0
-0.109226837754 0.046940151602 -0.174102678895 255 255 0
0.482048660517 -0.00721436645836 0.326079189777 255 255 0
0.446880102158 -0.000276198727079 0.31654509902 255 255 0
-0.0435911826789 0.0155786750838 -0.168193504214 255 255 0
-0.158675208688 0.0502751022577 -0.245876654983 255 255 0
0.266331672668 -0.00504236808047 -0.142020896077 255 255 0
0.0122529240325 0.00884715653956 -0.119986377656 255 255 0
0.517701327801 -0.0090125836432 0.200998052955 255 255 0
0.297353386879 -0.00803696829826 -0.228687644005 255 255 0
0.439141869545 0.00126597122289 0.330936789513 255 255 0
0.448716878891 -0.0109292529523 -0.25042206049 255 255 0
-0.0923380926251 0.0514386594296 -0.179943963885 255 255 0
0.512741684914 -0.00825048424304 0.282309263945 255 255 0
0.11386410892 -0.000945794221479 -0.163181170821 255 255 0
0.297261923552 -0.00359071302228 -0.0678119882941 255 255 0
0.438495516777 0.00063575693639 0.329032212496 255 255 0
0.166073009372 -0.00531266722828 -0.0646585002542 255 255 0
-0.158176839352 0.051420763135 -0.251071631908 255 255 0
-0.12592703104 0.0456987209618 -0.18530832231 255 255 0
0.455170601606 -0.00867988634855 -0.0335892513394 255 255 0
-0.459852129221 -0.00148488220293 0.230690911412 255 255 0
0.3237375319 0.000296657817671 0.127597212791 255 255 0
-0.225562542677 0.00291672442108 -0.063761562109 255 255 0
0.453473240137 -0.00404005777091 0.218176230788 255 255 0
0.481428623199 -0.00683633657172 0.209470957518 255 255 0
-0.204426899552 0.0104905366898 -0.0880738794804 255 255 0
0.446239769459 -0.0114518767223 -0.301108390093 255 255 0
0.234907954931 -0.00529059628025 -0.0978932902217 255 255 0
0.0203396193683 0.00798513926566 -0.15120562911 255 255 0
0.507509231567 -0.0111435521394 0.0456765145063 255 255 0
-0.0906917899847 0.0529679097235 -0.183809876442 255 255 0
0.221681401134 -0.0049017961137 -0.095975510776 255 255 0
0.110498264432 -0.00355053506792 -0.294430851936 255 255 0
0.109141558409 0.000492376624607 -0.146332040429 255 255 0
0.0556591264904 0.00874928105623 -0.146078303456 255 255 0
0.0545434355736 0.00807706359774 -0.146720692515 255 255 0
0.44701102376 -0.0142821157351 -0.384612381458 255 255 0
0.464459389448 -0.00431261537597 0.286568254232 255 255 0
0.44929638505 -0.00855226628482 -0.0415075570345 255 255 0
0.0226246844977 0.00506001943722 -0.141259014606 255 255 0
-0.241772443056 -0.000298533122987 -0.217739507556 255 255 0
0.517241001129 -0.00773940049112 0.224519103765 255 255 0
-0.0767342448235 0.0121835358441 -0.0889699757099 255 255 0
-0.012048217468 0.017896881327 -0.203873872757 255 255 0
-0.220541536808 0.00800557434559 -0.278525322676 255 255 0
0.474761962891 -0.0109448824078 0.0840679705143 255 255 0
0.529534995556 0.00298742740415 0.14519032836 255 255 0
0.0528609491885 0.00919493474066 -0.15758356452 255 255 0
0.271709442139 -0.00508938590065 -0.0999308750033 255 255 0
0.29670420289 -0.00211388687603 0.0699064955115 255 255 0
0.521416127682 -0.00632300740108 0.258532375097 255 255 0
-0.0222450233996 -0.00413531716913 -0.297811329365 255 255 0
0.299557507038 -0.00459762429819 -0.0646746233106 255 255 0
0.46395906806 -0.00523913092911 0.187454819679 255 255 0
-0.0578392595053 -0.000794045103248 0.131354480982 255 255 0
-0.100750625134 0.0114998957142 -0.0888595283031 255 255 0
0.442765474319 -0.00209948141128 0.245857328176 255 255 0
0.390428125858 0.00299810478464 0.31311789155 255 255 0
0.121292591095 0.000224430114031 -0.11876630038 255 255 0
0.291384130716 -0.00714052235708 -0.123381122947 255 255 0
0.0125852990896 0.0102372998372 -0.119618169963 255 255 0
0.296659231186 -0.00316887418739 0.0773380473256 255 255 0
-0.233407706022 0.0484543740749 -0.187987536192 255 255 0
0.484976440668 -0.00729488441721 0.209343791008 255 255 0
0.508098483086 -0.0084605012089 0.259032458067 255 255 0
-0.307096362114 -0.00620803935453 -0.300361573696 255 255 0
0.259783297777 -0.000548435957171 0.227141648531 255 255 0
0.197053655982 -0.00502397958189 -0.14054466784 255 255 0
0.122356131673 0.000939852907322 -0.120269685984 255 255 0
0.0942835435271 0.00589566025883 -0.274012863636 255 255 0
0.445918619633 -0.0112541960552 -0.323422193527 255 255 0
0.503959536552 -0.0180337764323 -0.353244364262 255 255 0
-0.217304602265 0.006388082169 -0.281145900488 255 255 0
0.439490646124 0.00147104333155 0.345696151257 255 255 0
0.0334694460034 0.00916399247944 -0.202675268054 255 255 0
0.499637931585 -0.0197288710624 -0.404528051615 255 255 0
-0.223672151566 0.0124656260014 -0.171258792281 255 255 0
0.188838809729 -0.00445746164769 -0.109135299921 255 255 0
-0.113951787353 -0.00764819374308 -0.361308604479 255 255 0
-0.0753943771124 0.0109402872622 -0.0885245651007 255 255 0
0.54297709465 -4.91885521114e-06 0.148498609662 255 255 0
0.259981870651 -0.00580940023065 -0.135785058141 255 255 0
0.106059879065 0.000162209311384 -0.145698592067 255 255 0
0.226061716676 -0.00426738383248 -0.0553022883832 255 255 0
0.521044194698 -0.00821985770017 0.237193912268 255 255 0
0.456907957792 -0.0091299302876 0.00434370338917 255 255 0
0.498562514782 -0.0199137143791 -0.403555929661 255 255 0
0.524146974087 -0.00514180073515 0.191437512636 255 255 0
0.443876862526 -0.00659386254847 -0.144687488675 255 255 0
0.0517778880894 0.0094833355397 -0.158314362168 255 255 0
0.47377422452 -0.0099366819486 0.11190507561 255 255 0
0.147583603859 0.000877146318089 0.228238582611 255 255 0
-0.0574998222291 0.0529294088483 -0.18644630909 255 255 0
-0.180412858725 0.012927768752 -0.0905754640698 255 255 0
-0.454590588808 -0.000566199829336 0.155323907733 255 255 0
0.300252169371 -0.00474919378757 -0.0170276295394 255 255 0
0.188972592354 -0.00356821040623 -0.071996152401 255 255 0
-0.324969679117 -0.00231343577616 -0.0535570830107 255 255 0
0.0831125825644 -0.00257143727504 -0.292231082916 255 255 0
0.146589577198 0.00190354872029 0.228165701032 255 255 0
0.293494671583 -0.012199302204 -0.453376680613 255 255 0
0.4745233953 -0.0102003328502 0.11560831219 255 255 0
0.448476731777 -0.00842576939613 -0.0407596454024 255 255 0
0.0806675776839 -0.00179883104283 -0.291818976402 255 255 0
0.274857521057 -0.00406685983762 -0.115241296589 255 255 0
-0.330673009157 -0.00335165858269 -0.0772128626704 255 255 0
0.50336265564 -0.0104895569384 0.164096474648 255 255 0
-0.252785742283 0.00153552321717 -0.114613845944 255 255 0
0.183213144541 -0.00532324146479 -0.0719231516123 255 255 0
0.473803520203 -0.00873482692987 0.139638140798 255 255 0
0.0846157670021 -0.00138551101554 -0.29189914465 255 255 0
-0.0071611776948 0.00351846776903 -0.284739673138 255 255 0
0.31382766366 0.00110195600428 0.138663753867 255 255 0
0.512768507004 -0.0110602974892 -0.360731601715 255 255 0
0.0343261212111 0.00875403638929 -0.202286437154 255 255 0
0.297768712044 -0.00246293982491 0.0836497992277 255 255 0
0.543262481689 -0.000903488253243 0.15323586762 255 255 0
0.448872208595 -0.00987403839827 -0.229159012437 255 255 0
-0.101431980729 0.00940342526883 -0.0862001776695 255 255 0
0.0169735979289 0.00793398171663 -0.152169346809 255 255 0
-0.092041157186 0.00386958080344 -0.078395858407 255 255 0
-0.0795090794563 0.0156742744148 -0.269000321627 255 255 0
0.297139436007 -0.0079997247085 -0.225528612733 255 255 0
-0.165084630251 0.00703299697489 -0.280595928431 255 255 0
0.101037181914 -0.00206958316267 -0.309612751007 255 255 0
-0.0175494421273 -0.00126065395307 -0.28866609931 255 255 0
0.537326812744 0.000917502795346 0.14675848186 255 255 0
0.44453305006 -0.0109409866855 -0.312488406897 255 255 0
-0.0660281777382 -0.000194267035113 0.231952741742 255 255 0
-0.30711042881 -0.00424970081076 -0.078699298203 255 255 0
-0.0596101544797 -0.008554270491 -0.332213550806 255 255 0
-0.0249820500612 0.046892490238 -0.174651309848 255 255 0
-0.480948090553 -0.00170479039662 0.236766919494 255 255 0
0.506835281849 -0.0100777791813 0.0316195599735 255 255 0
0.430145889521 -0.00178875122219 0.154341846704 255 255 0
0.403307646513 0.00209534703754 0.343867480755 255 255 0
0.106554552913 0.000908225018065 -0.133277609944 255 255 0
-0.194762334228 0.0108796404675 -0.172390654683 255 255 0
0.505797386169 -0.0193851087242 -0.385083734989 255 255 0
-0.0376992821693 -0.00088481977582 0.135984703898 255 255 0
0.00285537191667 0.00909815821797 -0.156153649092 255 255 0
0.117735527456 7.55023720558e-05 -0.131866976619 255 255 0
-0.0993277952075 0.0104390792549 -0.0863418579102 255 255 0
0.442082822323 -0.00502502918243 -0.0395958460867 255 255 0
0.505462884903 -0.0123075665906 -0.0863819941878 255 255 0
-0.09473285079 -0.00799482967705 -0.386756360531 255 255 0
0.479089736938 -0.0060453703627 0.325596809387 255 255 0
0.526837348938 -0.00554237747565 0.187896475196 255 255 0
0.502631485462 -0.0198222286999 -0.400567144156 255 255 0
0.480996966362 -0.0145689267665 -0.100347809494 255 255 0
-0.0231468025595 -0.00256549799815 -0.290880829096 255 255 0
-0.090673327446 0.00340621941723 -0.0766972079873 255 255 0
-0.212307408452 0.0510942749679 -0.168405607343 255 255 0
-0.0752559006214 0.0107599934563 -0.0864565968513 255 255 0
0.520753085613 -0.00739349471405 0.238706767559 255 255 0
0.484803378582 -0.0108963856474 0.0762932822108 255 255 0
-0.0331089347601 -0.00254074926488 -0.304000735283 255 255 0
-0.30935305357 -0.00537562556565 -0.191173017025 255 255 0
-0.165208294988 0.0125437136739 -0.194568812847 255 255 0
-0.102428257465 0.0103070288897 -0.0864695236087 255 255 0
0.477186530828 -0.0134113607928 -0.0241244956851 255 255 0
0.533975958824 0.00275665940717 0.146238490939 255 255 0
0.509637475014 -0.00987897347659 0.2599799335 255 255 0
0.444498628378 -0.00307950819843 0.250976145267 255 255 0
0.519915521145 -0.00565393734723 0.256098806858 255 255 0
-0.164614424109 0.0403785780072 -0.189047858119 255 255 0
0.520624876022 -0.00676217349246 0.237383574247 255 255 0
0.296376258135 -0.00269870809279 0.0711157545447 255 255 0
0.454181104898 -0.0153811108321 -0.395540088415 255 255 0
-0.101999931037 0.0106785958633 -0.0891569033265 255 255 0
0.461582571268 -0.00389539380558 0.289210319519 255 255 0
0.0563743896782 -0.00404713768512 -0.293922752142 255 255 0
0.214007213712 -0.00481646833941 -0.0598053447902 255 255 0
-0.203685984015 0.0113710993901 -0.0873084962368 255 255 0
0.483046978712 -0.0115705039352 0.0496117435396 255 255 0
-0.181774154305 0.0119971949607 -0.201337352395 255 255 0
-0.321704953909 -0.00287504820153 -0.0379874035716 255 255 0
-0.204677328467 0.0116863632575 -0.0889365896583 255 255 0
0.527342021465 -0.0044726789929 0.111693501472 255 255 0
0.229823127389 -0.00473139900714 -0.0548901259899 255 255 0
-0.0542108416557 -0.00876247137785 -0.387705951929 255 255 0
0.505093514919 -0.017457306385 -0.284586876631 255 255 0
0.115201644599 -0.000965440587606 -0.133375525475 255 255 0
0.286321282387 -0.00693434057757 -0.131598055363 255 255 0
-0.0518711209297 -0.00892648473382 -0.339773207903 255 255 0
0.445697009563 -0.0115447379649 -0.293524563313 255 255 0
-0.204089432955 0.0118492981419 -0.0924095213413 255 255 0
-0.175503224134 0.00696591800079 -0.0786451399326 255 255 0
-0.324929684401 -0.00192840024829 0.235075250268 255 255 0
-0.0663779452443 0.00561994407326 -0.0798344612122 255 255 0
-0.0408333353698 0.0091856373474 -0.0853398665786 255 255 0
0.45172020793 -0.0153853157535 -0.412953078747 255 255 0
0.48116093874 -0.00660154502839 0.325473308563 255 255 0
0.529785752296 -0.00525629101321 0.111536338925 255 255 0
0.297859162092 -0.00535190617666 -0.0728138759732 255 255 0
0.462826043367 -0.00754006300122 0.0773707926273 255 255 0
0.510832309723 -0.00889742560685 0.254684329033 255 255 0
-0.114689163864 0.0173905845731 -0.269544750452 255 255 0
0.0981917232275 0.00224177353084 -0.277248173952 255 255 0
0.0241372473538 0.00600861478597 -0.263165980577 255 255 0
-0.155540540814 0.0533224120736 -0.257998228073 255 255 0
0.148355141282 -0.00368967442773 -0.0829013958573 255 255 0
0.0557986088097 -0.00325137772597 -0.294203341007 255 255 0
-0.0572253987193 0.00864277034998 -0.0850201845169 255 255 0
0.521283507347 -0.00743818562478 0.219314754009 255 255 0
0.261627852917 -0.000510947837029 0.227462470531 255 255 0
0.476458877325 -0.00962333194911 0.0880811139941 255 255 0
-0.324212372303 -0.00293117389083 -0.072501167655 255 255 0
0.0517550595105 0.00930196978152 -0.154139965773 255 255 0
-0.225005120039 0.0127648646012 -0.141943216324 255 255 0
0.195034787059 -0.00424895109609 -0.0749293193221 255 255 0
0.505153119564 -0.0162729024887 -0.305340945721 255 255 0
-0.0259962249547 -0.00517945038155 -0.29657676816 255 255 0
0.467486053705 -0.0185378156602 -0.431212216616 255 255 0
-0.0440730005503 -0.008225383237 -0.387957245111 255 255 0
0.49696880579 -0.00971455592662 0.231977120042 255 255 0
0.0171123407781 0.00897885486484 -0.217880800366 255 255 0
0.439864248037 -0.00242873956449 0.112927608192 255 255 0
-0.1654073596 0.012456565164 -0.192781284451 255 255 0
0.404101610184 0.00289754755795 0.34441819787 255 255 0
-0.114587694407 0.00491439877078 -0.077654466033 255 255 0
-0.32115894556 -0.00305745215155 -0.0348824113607 255 255 0
0.0769054293633 -0.00399402249604 -0.294872909784 255 255 0
0.198736235499 -0.00525700068101 -0.10714840889 255 255 0
0.102116376162 0.00247810105793 -0.149282366037 255 255 0
0.127197876573 -0.00610717991367 -0.328181833029 255 255 0
0.479698896408 -0.00776558788493 0.307204037905 255 255 0
-0.0658612176776 0.00420470442623 -0.0788327977061 255 255 0
0.474175035954 -0.0107655953616 0.0693531557918 255 255 0
0.296158820391 -0.00286268093623 0.0688787773252 255 255 0
0.473213851452 -0.00921701546758 0.110213644803 255 255 0
-0.124938294291 7.9535660916e-05 -0.0678703486919 255 255 0
0.447907030582 -0.0127199068666 -0.337542384863 255 255 0
0.447273641825 -0.0108418976888 -0.236815989017 255 255 0
0.508224785328 -0.011297329329 0.0592209845781 255 255 0
0.544284164906 -0.00203489884734 0.307337582111 255 255 0
0.471607476473 -0.0139030544087 -0.108785428107 255 255 0
0.387663453817 0.00327907735482 0.308219909668 255 255 0
-0.216207191348 0.0580983497202 -0.195736289024 255 255 0
0.298473507166 -0.00638493290171 -0.13555637002 255 255 0
-0.0865312591195 -0.00775752868503 -0.343991279602 255 255 0
-0.0613179840147 0.0208372734487 -0.170446574688 255 255 0
0.296502232552 -0.0060302587226 -0.187441393733 255 255 0
0.474817991257 -0.0133358091116 -0.0440830290318 255 255 0
0.480236828327 -0.00755446637049 0.308367460966 255 255 0
0.204652830958 -0.00467960676178 -0.146874547005 255 255 0
0.48486238718 -0.00713465549052 0.210795074701 255 255 0
0.44086804986 0.00121254858095 0.336147129536 255 255 0
-0.309324800968 -0.00495048379526 -0.194180116057 255 255 0
0.0467958562076 0.00708797620609 -0.219543173909 255 255 0
-0.154756367207 0.0530763231218 -0.261983007193 255 255 0
0.485228598118 -0.00886886380613 0.28117159009 255 255 0
0.506015896797 -0.0130810616538 -0.117471024394 255 255 0
0.0321841612458 0.00512801622972 -0.0812203809619 255 255 0
-0.0149610126391 -0.00309466337785 -0.297588855028 255 255 0
0.299710333347 -0.00507221603766 -0.135792210698 255 255 0
-0.0492901466787 0.00467109819874 -0.0787925422192 255 255 0
0.445971906185 -0.0111377183348 -0.348047941923 255 255 0
-0.092596128583 0.0518914982677 -0.186090901494 255 255 0
-0.0562649667263 0.00930171459913 -0.0849595740438 255 255 0
0.10190410912 -0.00256906892173 -0.309698343277 255 255 0
0.523068368435 -0.00614473409951 0.218605145812 255 255 0
-0.0953071415424 -0.00974620506167 -0.387200564146 255 255 0
-0.306467920542 -0.00588272791356 -0.184329554439 255 255 0
-0.0786003321409 -0.0088128419593 -0.388569355011 255 255 0
-0.0107058826834 0.0166265256703 -0.208815202117 255 255 0
-0.109388701618 -0.00138643709943 -0.302584141493 255 255 0
-0.00300979684107 -0.00906512793154 -0.333478033543 255 255 0
0.0314502231777 0.00389787694439 -0.0812839791179 255 255 0
0.50648021698 -0.0100922696292 0.0457915663719 255 255 0
0.449350625277 -0.0028793590609 0.247658893466 255 255 0
0.296350628138 -0.00701920734718 -0.225356176496 255 255 0
-0.176133438945 0.00592013960704 -0.0790329575539 255 255 0
-0.324426144361 -0.00211341842078 -0.0389203242958 255 255 0
0.473651587963 -0.0101137766615 0.114438705146 255 255 0
-0.0910826995969 0.00317565817386 -0.077769882977 255 255 0
0.43580442667 0.000604819622822 0.225135460496 255 255 0
0.251857966185 -0.00131443759892 0.151106134057 255 255 0
-0.0648248270154 0.0182024687529 -0.168754667044 255 255 0
-0.191292434931 0.0128555446863 -0.174679800868 255 255 0
0.506926834583 -0.0142619535327 -0.176787570119 255 255 0
0.262940734625 0.000164266559295 0.227288931608 255 255 0
-0.13996720314 0.0171575061977 -0.266584694386 255 255 0
-0.170247584581 0.00750369345769 -0.279136240482 255 255 0
-0.223593011498 0.0124187106267 -0.142226561904 255 255 0
-0.221117407084 0.00569127453491 -0.0789570137858 255 255 0
-0.108565419912 0.0100584253669 -0.117327645421 255 255 0
-0.0784254223108 -0.00991387665272 -0.388639450073 255 255 0
0.439854472876 -0.000563317560591 0.250899523497 255 255 0
0.312217086554 0.00119475042447 0.13188944757 255 255 0
-0.199115291238 0.00975167751312 -0.234904289246 255 255 0
