ply
format ascii 1.0
comment https://github.com/EricCJoyce
element vertex 843
property float x
property float y
property float z
property uchar red
property uchar green
property uchar blue
end_header
-0.259383380413 -0.103850401938 -0.218080103397 255 255 0
0.112077124417 0.107269637287 0.244691103697 255 255 0
-0.0746844112873 0.108927682042 0.212900683284 255 255 0
0.229406356812 0.102889500558 0.281187206507 255 255 0
0.260902762413 -0.111482858658 -0.0760262683034 255 255 0
-0.165783390403 0.101684078574 0.160813838243 255 255 0
0.0280450712889 0.107878193259 0.211724966764 255 255 0
0.189277857542 0.102792643011 -0.0414369255304 255 255 0
-0.0705263987184 0.108176872134 0.214722633362 255 255 0
0.0801175162196 0.108121991158 0.22157381475 255 255 0
0.0877410694957 0.106236159801 -0.137143686414 255 255 0
0.0375192277133 0.107454702258 -0.119756937027 255 255 0
-0.262831956148 -0.102711938322 0.217099577188 255 255 0
-0.171353399754 0.100488983095 0.107826285064 255 255 0
-0.26129347086 -0.104648679495 -0.0298307891935 255 255 0
-0.261334508657 -0.103499114513 0.00196293368936 255 255 0
-0.252684354782 -0.102677889168 -0.335248410702 255 255 0
0.0462964624166 0.108853057027 0.226211547852 255 255 0
0.0178274940699 0.10791348666 0.208689942956 255 255 0
-0.262174367905 -0.102841392159 0.0343823730946 255 255 0
-0.260898947716 -0.104184299707 -0.0365772843361 255 255 0
-0.20349162817 0.108933344483 0.0753417387605 255 255 0
-0.265884429216 -0.103997059166 0.004479855299 255 255 0
-0.262446016073 -0.1018929407 0.0680750310421 255 255 0
0.110208831728 0.106901682913 0.24474388361 255 255 0
-0.042816054076 0.10972956568 -0.144692108035 255 255 0
0.114292383194 0.101350322366 -0.113361805677 255 255 0
-0.215401440859 0.113989375532 -0.0366201773286 255 255 0
0.250951379538 -0.106232844293 0.28153938055 255 255 0
-0.00505853723735 0.108432084322 -0.165491849184 255 255 0
-0.0419039800763 0.108172468841 -0.145064711571 255 255 0
-0.264187335968 -0.105429805815 -0.18847489357 255 255 0
-0.0689999982715 0.108791485429 -0.126603066921 255 255 0
0.108503587544 0.10718023777 0.246188297868 255 255 0
0.248286917806 0.103219933808 0.278810560703 255 255 0
-0.265533268452 -0.105652444065 -0.0732147619128 255 255 0
-0.260443150997 0.101109527051 -0.327843695879 255 255 0
-0.200746446848 0.109428428113 0.0754914432764 255 255 0
-0.258184760809 -0.0996311977506 0.272993654013 255 255 0
0.0177241563797 0.107867628336 0.209821581841 255 255 0
-0.183695018291 0.107235267758 0.0495985262096 255 255 0
-0.264734834433 -0.104227781296 -0.29869684577 255 255 0
0.0245300810784 0.107569478452 0.20905791223 255 255 0
-0.110229685903 0.109433241189 -0.174085170031 255 255 0
0.251445651054 0.102553553879 0.278801321983 255 255 0
-0.260419368744 -0.104354016483 -0.15525996685 255 255 0
-0.0702599734068 0.108650304377 -0.126390069723 255 255 0
-0.259859412909 -0.10471778363 -0.201013863087 255 255 0
-0.21273380518 0.15053935349 -0.0760552734137 255 255 0
-0.259762227535 -0.0935396254063 0.266662120819 255 255 0
-0.174470335245 0.102205358446 0.0660279393196 255 255 0
-0.261208683252 -0.106029272079 -0.0541604198515 255 255 0
-0.261275053024 -0.105292886496 -0.0107902251184 255 255 0
-0.26494410634 -0.104627929628 -0.224734947085 255 255 0
-0.0363425724208 0.108293272555 0.200812965631 255 255 0
-0.0995837002993 0.109123207629 0.210161119699 255 255 0
-0.16262255609 0.101982995868 0.164284661412 255 255 0
0.133349090815 0.106633171439 0.227659910917 255 255 0
0.0223325304687 0.1089367643 0.226592376828 255 255 0
0.0266772061586 0.108747206628 0.211570456624 255 255 0
-0.21706572175 0.11040520668 -0.0863674581051 255 255 0
-0.0945312827826 0.109067164361 0.205221548676 255 255 0
-0.265074908733 -0.104815453291 -0.287434309721 255 255 0
0.255475759506 -0.1111189574 0.283210396767 255 255 0
0.249185174704 -0.108517609537 -0.343401372433 255 255 0
0.0201928857714 0.108945056796 0.226668000221 255 255 0
0.0223451275378 0.10797727108 0.225722029805 255 255 0
-0.261082291603 -0.105303503573 -0.139005661011 255 255 0
-0.077825114131 0.110263749957 -0.170938283205 255 255 0
0.232977077365 0.102908171713 0.281468212605 255 255 0
0.0451673716307 0.107783868909 0.226460441947 255 255 0
-0.0327314324677 0.106453299522 0.185626238585 255 255 0
-0.0174980722368 0.108070813119 -0.129326209426 255 255 0
0.0833052545786 0.106128714979 0.202246874571 255 255 0
-0.0232979413122 0.108046792448 -0.161976844072 255 255 0
0.0487783178687 0.107158452272 -0.154942035675 255 255 0
-0.172327458858 0.100789360702 0.101957216859 255 255 0
-0.109972849488 0.110320299864 -0.173663273454 255 255 0
-0.0345323868096 0.107772216201 0.201238259673 255 255 0
0.261936426163 0.0800112187862 0.273180663586 255 255 0
-0.035000026226 0.106498964131 0.204021453857 255 255 0
-0.242840573192 -0.0307940188795 -0.344857275486 255 255 0
0.177316948771 0.100271545351 -0.0594175942242 255 255 0
-0.000884808367118 0.107745975256 -0.16511785984 255 255 0
-0.26547318697 -0.105619177222 -0.204976484179 255 255 0
0.238534063101 0.101886205375 0.281492084265 255 255 0
-0.262277960777 -0.10286539793 0.0333067774773 255 255 0
-0.108652673662 0.110226079822 -0.171016186476 255 255 0
-0.206822618842 0.109337411821 0.0765034928918 255 255 0
0.07853872329 0.10635624826 -0.17363871634 255 255 0
-0.172012731433 0.104922242463 0.167296111584 255 255 0
0.0975479185581 0.106984756887 0.221396788955 255 255 0
0.0519078038633 0.106489852071 0.208087638021 255 255 0
-0.10651409626 0.109967656434 -0.170044511557 255 255 0
-0.000577924889512 0.106240265071 0.27937117219 255 255 0
-0.261687815189 -0.103260926902 0.0549041517079 255 255 0
0.0897753685713 0.104260951281 -0.118899837136 255 255 0
-0.264664798975 -0.104404218495 -0.292369455099 255 255 0
-0.102779746056 0.109640307724 0.211042031646 255 255 0
-0.267124384642 -0.102815188468 0.212551012635 255 255 0
0.0308078937232 0.107555538416 -0.123703435063 255 255 0
-0.265585333109 -0.10564763099 -0.0742454230785 255 255 0
-0.0733395814896 0.108577542007 0.241205006838 255 255 0
-0.263220101595 -0.104722425342 -0.324306070805 255 255 0
0.24022385478 0.102067753673 0.281140267849 255 255 0
0.000777570297942 0.107607483864 0.228032499552 255 255 0
-0.167130798101 0.102845907211 0.164070472121 255 255 0
0.0870464742184 0.105917863548 -0.119857549667 255 255 0
-0.213115394115 0.111662693322 -0.0324591808021 255 255 0
0.022849066183 0.109237000346 0.225620210171 255 255 0
-0.2629968822 -0.102519266307 0.208676636219 255 255 0
-0.264870971441 -0.104613699019 -0.289808779955 255 255 0
0.243476688862 0.103742353618 0.277856141329 255 255 0
-0.109184756875 0.109413973987 -0.174026429653 255 255 0
-0.214836746454 0.148772791028 -0.0812297686934 255 255 0
-0.0317252129316 0.108612217009 -0.124904617667 255 255 0
-0.25758382678 0.107832200825 -0.191273137927 255 255 0
-0.26031178236 -0.104205623269 -0.091820307076 255 255 0
-0.0679112821817 0.108634419739 -0.127383321524 255 255 0
-0.22505697608 0.148604616523 -0.048233281821 255 255 0
-0.175463587046 0.102675162256 0.103164434433 255 255 0
-0.214004844427 0.109946079552 -0.0877952948213 255 255 0
-0.0934903547168 0.108152471483 0.204928725958 255 255 0
0.107163570821 0.107206039131 0.245121449232 255 255 0
0.00453407736495 0.10743483901 -0.164288729429 255 255 0
-0.0658334568143 0.109702862799 0.22155110538 255 255 0
-0.260795891285 -0.104599192739 -0.0227537062019 255 255 0
-0.255400031805 0.059486631304 0.276284188032 255 255 0
-0.0999072268605 0.109247989953 0.21146056056 255 255 0
-0.214250460267 0.152544617653 -0.0591090060771 255 255 0
-0.0869786515832 0.10946277529 -0.172488749027 255 255 0
-0.067921847105 0.109421767294 0.22075805068 255 255 0
0.000885851506609 0.105230875313 0.279398918152 255 255 0
0.257689714432 -0.109745979309 0.274757623672 255 255 0
-0.0730706080794 0.108551427722 -0.170581772923 255 255 0
-0.260203182697 -0.103187799454 -0.317282497883 255 255 0
-0.259830087423 -0.105436578393 -0.113706566393 255 255 0
0.0961555019021 0.107527025044 0.234871551394 255 255 0
-0.0162836909294 0.108679518104 -0.129532769322 255 255 0
-0.245195031166 0.111764349043 -0.336721122265 255 255 0
0.0772456005216 0.106428027153 -0.173806190491 255 255 0
0.00335932010785 0.107972815633 -0.164988055825 255 255 0
0.000262309156824 0.106930531561 0.278879582882 255 255 0
-0.259495258331 -0.104628771544 -0.329192280769 255 255 0
-0.263809084892 -0.104909814894 -0.263027727604 255 255 0
-0.0773217603564 0.108536839485 -0.17110837996 255 255 0
-0.21536231041 0.1524335742 -0.0595275349915 255 255 0
-0.262925297022 -0.101265020669 0.173443496227 255 255 0
0.02755946666 0.106400646269 -0.166501626372 255 255 0
-0.0328445360065 0.108991071582 -0.124023742974 255 255 0
-0.113498710096 0.108077771962 0.204837635159 255 255 0
-0.0216096565127 0.108885586262 0.238004133105 255 255 0
-0.162926495075 0.104138880968 0.167308658361 255 255 0
-0.265383958817 -0.10512880981 -0.0858800113201 255 255 0
0.0307244304568 0.106463044882 -0.123114705086 255 255 0
-0.21798543632 0.113918028772 -0.039439085871 255 255 0
-0.26170566678 -0.105108685791 -0.155337303877 255 255 0
0.258309870958 -0.11129103601 0.101856470108 255 255 0
-0.10134549439 0.108766846359 0.211342126131 255 255 0
-0.260065227747 -0.104213520885 -0.153282672167 255 255 0
0.0504560805857 0.108122766018 0.210284352303 255 255 0
0.0788471475244 0.105988644063 -0.123360961676 255 255 0
0.0485244616866 0.108053453267 0.210166797042 255 255 0
0.259237617254 -0.107819460332 -0.28590297699 255 255 0
-0.259693264961 -0.105820499361 -0.100205235183 255 255 0
-0.0672252476215 0.109795302153 0.221821933985 255 255 0
0.112779118121 0.107258424163 0.22319753468 255 255 0
0.105988413095 0.107566446066 0.219102919102 255 255 0
-0.26060000062 -0.104136347771 -0.0987665727735 255 255 0
-0.216101408005 0.113824635744 -0.0374366752803 255 255 0
-0.259479820728 -0.104280397296 -0.273142933846 255 255 0
-0.089178070426 0.109196789563 -0.171534925699 255 255 0
-0.112374588847 0.107626534998 0.204810842872 255 255 0
-0.254964053631 -0.0975620746613 -0.325234949589 255 255 0
-0.261651158333 -0.104685910046 -0.0348702780902 255 255 0
-0.19864821434 0.109908662736 -0.0836267024279 255 255 0
-0.219700083137 0.147862419486 -0.0338476076722 255 255 0
0.0686995238066 0.107544511557 0.240684196353 255 255 0
-0.262262791395 -0.102797091007 0.0974928960204 255 255 0
0.106655485928 0.107857421041 0.237058237195 255 255 0
0.083606697619 0.106221839786 -0.124858602881 255 255 0
-0.218859031796 0.11454192549 -0.0395698063076 255 255 0
-0.102977871895 0.109048053622 -0.170602291822 255 255 0
-0.259193480015 -0.103038482368 -0.304342359304 255 255 0
-0.260175704956 -0.104852281511 -0.268429070711 255 255 0
-0.174849703908 0.102193497121 0.116842851043 255 255 0
-0.0310667846352 0.107681460679 -0.170741796494 255 255 0
0.0707732588053 0.105252496898 -0.118582196534 255 255 0
-0.0196818020195 0.108679160476 -0.162573486567 255 255 0
0.0735988989472 0.105983473361 -0.157382816076 255 255 0
0.00025317055406 0.108496539295 0.228009626269 255 255 0
-0.074125982821 0.107804171741 0.241273671389 255 255 0
-0.0882746130228 0.108713746071 -0.172177568078 255 255 0
-0.26452550292 -0.106125079095 -0.17405231297 255 255 0
0.183276921511 0.102491378784 -0.0589911416173 255 255 0
-0.263660341501 -0.102033823729 0.183211162686 255 255 0
0.114018879831 0.108317650855 0.218742087483 255 255 0
0.107500828803 0.108179718256 0.219278797507 255 255 0
-0.0748085826635 0.109203025699 0.24107798934 255 255 0
-0.265036135912 -0.105236582458 -0.340441167355 255 255 0
-0.25796610117 0.107099875808 0.269508808851 255 255 0
-0.216339305043 0.152323171496 -0.072514615953 255 255 0
0.131176784635 0.102105922997 -0.113852240145 255 255 0
-0.170607224107 0.0996413305402 0.117250449955 255 255 0
-0.266531020403 -0.105008929968 -0.240819126368 255 255 0
0.00390900904313 0.108839392662 -0.161644950509 255 255 0
-0.19773876667 0.108531430364 0.0681753233075 255 255 0
-0.208598285913 0.149985909462 -0.0734090358019 255 255 0
0.0731653869152 0.105680711567 -0.156001582742 255 255 0
0.260084599257 -0.109411731362 -0.211380630732 255 255 0
-0.245337501168 0.110333219171 -0.337435156107 255 255 0
-0.172022640705 0.100314699113 0.120971299708 255 255 0
0.036249794066 0.109431736171 0.223539203405 255 255 0
-0.266187131405 -0.104788467288 -0.175430744886 255 255 0
0.00968941766769 0.107144206762 -0.16439037025 255 255 0
-0.266221255064 -0.106147564948 -0.0705968365073 255 255 0
-0.264734894037 -0.106516852975 -0.100335977972 255 255 0
-0.265947759151 -0.105944089592 -0.203654035926 255 255 0
0.0690510943532 0.106478191912 0.206392064691 255 255 0
0.07149451226 0.105805419385 -0.120298348367 255 255 0
-0.181043744087 0.107039779425 0.0676996707916 255 255 0
-0.0959452390671 0.110486343503 -0.174890980124 255 255 0
0.0316899232566 0.10478630662 0.280671358109 255 255 0
-0.199078351259 0.108854465187 0.0688152462244 255 255 0
-0.138203054667 0.10555010289 -0.122204087675 255 255 0
-0.0218254774809 0.108663417399 -0.162628099322 255 255 0
-0.23211504519 0.109944418073 -0.132796928287 255 255 0
0.109741486609 0.108348034322 0.237217098475 255 255 0
0.106663919985 0.107805684209 0.23810005188 255 255 0
-0.265128463507 -0.106384284794 -0.176836445928 255 255 0
-0.179663702846 0.107147723436 0.0147389126942 255 255 0
0.235405653715 0.102552570403 0.281120359898 255 255 0
-0.175749719143 0.10499060899 0.0632298961282 255 255 0
-0.0720051303506 0.109503157437 0.214421242476 255 255 0
-0.262754589319 -0.103636443615 0.047562405467 255 255 0
0.176150426269 0.103167772293 0.165144473314 255 255 0
0.134685367346 0.101034753025 -0.11354483664 255 255 0
0.024974571541 0.107984296978 -0.124950475991 255 255 0
0.00598884979263 0.109166294336 0.223854914308 255 255 0
0.0685334205627 0.109015971422 0.24078053236 255 255 0
0.0742636993527 0.106366954744 -0.120124071836 255 255 0
-0.261302024126 -0.101282007992 0.267629921436 255 255 0
-0.0927672460675 0.110162638128 -0.166081979871 255 255 0
0.0890551656485 0.107811585069 0.226222679019 255 255 0
-0.26660194993 -0.106163032353 -0.142574161291 255 255 0
-0.138842731714 0.104159288108 0.280464857817 255 255 0
-0.265395462513 -0.104223519564 -0.310126632452 255 255 0
-0.182188212872 0.106539718807 0.109815701842 255 255 0
0.0519732348621 0.10822545737 0.208020463586 255 255 0
-0.266612827778 -0.10528075695 -0.102494731545 255 255 0
0.181257560849 0.10477296263 0.165007710457 255 255 0
0.0227645635605 0.106983266771 -0.160162165761 255 255 0
-0.20578314364 0.118101976812 -0.0494165979326 255 255 0
0.258796393871 -0.109912157059 0.114992879331 255 255 0
-0.0959198400378 0.108827836812 -0.175231128931 255 255 0
-0.173087075353 0.102231256664 0.0656672939658 255 255 0
-0.260318011045 -0.103534504771 -0.309169441462 255 255 0
-0.170491009951 0.099881157279 0.110468193889 255 255 0
0.178879678249 0.104774281383 0.163603022695 255 255 0
-0.0171533394605 0.105529867113 0.279991298914 255 255 0
-0.232333853841 -0.0291651580483 -0.344213306904 255 255 0
0.0222941972315 0.107919543982 0.209476411343 255 255 0
-0.18162471056 0.108010061085 0.016860364005 255 255 0
0.254748821259 -0.109229423106 -0.347718089819 255 255 0
0.256532073021 -0.104269884527 -0.330635994673 255 255 0
-0.136699706316 0.107009872794 -0.123647458851 255 255 0
-0.255685597658 0.0653413385153 -0.32721221447 255 255 0
-0.139186382294 0.10612193495 -0.12337705493 255 255 0
-0.0306600779295 0.108558274806 -0.1710190624 255 255 0
-0.259866952896 -0.103564292192 -0.234672680497 255 255 0
0.0445782728493 0.107120655477 -0.159812584519 255 255 0
-0.19270786643 0.108469873667 0.0901533290744 255 255 0
-0.260606378317 -0.103857330978 -0.304720878601 255 255 0
-0.0974692627788 0.110055848956 -0.164384573698 255 255 0
-0.0690888911486 0.109339922667 0.220690131187 255 255 0
-0.172818988562 0.100828975439 0.100990243256 255 255 0
0.106016002595 0.107814051211 0.246061012149 255 255 0
0.0384969823062 0.103893436491 -0.113987907767 255 255 0
0.011907315813 0.10567446053 0.280515342951 255 255 0
-0.210672408342 0.109351255 0.0753461942077 255 255 0
-0.0581475347281 0.107446298003 0.253632247448 255 255 0
-0.260200709105 -0.10350164026 -0.308117210865 255 255 0
0.134460970759 0.101214401424 -0.114708833396 255 255 0
-0.245065331459 -0.102663524449 -0.337095022202 255 255 0
-0.022153718397 0.108911126852 -0.160555317998 255 255 0
-0.191759869456 0.108956739306 0.089242823422 255 255 0
-0.260780185461 -0.104679383337 -0.283800393343 255 255 0
-0.259209573269 0.0586816780269 0.267440617085 255 255 0
-0.261838048697 -0.102787002921 0.038557048887 255 255 0
0.111662574112 0.108473427594 0.223936393857 255 255 0
0.131604239345 0.106511443853 0.226784795523 255 255 0
-0.267440378666 -0.101841263473 0.178832963109 255 255 0
-0.254946619272 -0.102500617504 0.279996961355 255 255 0
-0.261625945568 -0.104563824832 -0.0379878282547 255 255 0
0.259215474129 -0.110002070665 0.012027121149 255 255 0
-0.173248559237 0.101301804185 0.104253277183 255 255 0
-0.058842625469 0.106746047735 0.249097555876 255 255 0
-0.111990645528 0.10898245126 0.203682467341 255 255 0
-0.170667812228 0.100149132311 0.0569004043937 255 255 0
-0.261108011007 -0.106178537011 -0.114010535181 255 255 0
-0.183160483837 0.108197502792 0.0118235014379 255 255 0
-0.101389028132 0.110013946891 -0.171486958861 255 255 0
0.132181897759 0.105412334204 0.219575926661 255 255 0
0.180815339088 0.105077065527 0.163821086287 255 255 0
-0.254399478436 0.0117404479533 -0.329012811184 255 255 0
0.258710592985 -0.110121265054 -0.0288257747889 255 255 0
0.0236868150532 0.107631660998 -0.16024531424 255 255 0
-0.265158504248 -0.105220846832 -0.277081012726 255 255 0
-0.217505142093 0.12201783061 -0.0689289346337 255 255 0
0.053138140589 0.106700137258 -0.146657928824 255 255 0
0.259024113417 -0.11108572036 0.0883208289742 255 255 0
-0.244646206498 0.110223799944 -0.0838222280145 255 255 0
0.0664821565151 0.104989908636 -0.11847666651 255 255 0
-0.0903715267777 0.109691523015 -0.171292975545 255 255 0
0.0739324912429 0.108196802437 0.245370283723 255 255 0
0.0195520669222 0.108779847622 0.236424446106 255 255 0
0.255769044161 -0.104995809495 -0.0557087250054 255 255 0
0.0712499171495 0.105260774493 -0.155812680721 255 255 0
-0.222327649593 -0.10701841861 -0.348661094904 255 255 0
0.00482060620561 0.107818871737 0.208335742354 255 255 0
0.257515341043 -0.109235651791 0.265627592802 255 255 0
-0.0167207829654 0.109392285347 0.241033300757 255 255 0
-0.262963980436 -0.103255674243 0.230645418167 255 255 0
-0.00256084441207 0.107394337654 -0.124027572572 255 255 0
-0.220864713192 -0.0508727505803 0.285331994295 255 255 0
-0.0169127564877 0.10827358067 0.241492927074 255 255 0
-0.176320016384 0.104878276587 0.0230470430106 255 255 0
0.0505820922554 0.106783017516 -0.1790702492 255 255 0
0.25721898675 -0.108060121536 -0.0557998754084 255 255 0
-0.262551367283 -0.103009954095 0.0987410396338 255 255 0
-0.0741372928023 0.109863236547 0.238647535443 255 255 0
-0.0319097451866 0.108903281391 0.222504407167 255 255 0
-0.0984477773309 0.107382133603 0.246775999665 255 255 0
0.0945088043809 0.106709249318 0.245289370418 255 255 0
-0.26099589467 -0.104373186827 -0.0327460989356 255 255 0
-0.0835245922208 0.11066725105 -0.175551623106 255 255 0
-0.263204246759 -0.102887377143 0.149916499853 255 255 0
0.259388774633 -0.110417090356 0.268283724785 255 255 0
0.108313508332 0.10410990566 -0.119079343975 255 255 0
-0.19018663466 0.10849570483 0.0520076788962 255 255 0
0.0218267552555 0.105122774839 0.279715418816 255 255 0
-0.178122773767 0.105757400393 0.025088917464 255 255 0
0.00492519559339 0.107670888305 0.200144857168 255 255 0
-0.0331083983183 0.108766272664 -0.118425577879 255 255 0
-0.217896088958 0.120687566698 -0.069907553494 255 255 0
0.065621688962 0.10578623414 -0.156350553036 255 255 0
0.0203573424369 0.107501506805 -0.124025672674 255 255 0
0.0353790037334 0.103581860662 0.281047910452 255 255 0
-0.182115480304 0.108259402215 0.108807556331 255 255 0
-0.220938026905 -0.0531897544861 0.285516083241 255 255 0
-0.158826306462 0.110376238823 -0.136177212 255 255 0
-0.0572677366436 0.107930213213 0.24871699512 255 255 0
-0.20667077601 0.108693532646 0.0753773897886 255 255 0
-0.256785899401 0.0326421260834 0.274896562099 255 255 0
0.0987422391772 0.107566200197 0.234430029988 255 255 0
-0.138102114201 0.107152380049 -0.123420499265 255 255 0
0.0198025032878 0.107789412141 0.234013468027 255 255 0
-0.0968172326684 0.110313639045 -0.167866840959 255 255 0
0.0641025677323 0.106473073363 0.254641294479 255 255 0
-0.267463415861 -0.1018011868 0.177273899317 255 255 0
-0.263055473566 -0.102523550391 0.075975432992 255 255 0
-0.221414536238 0.152400568128 -0.0632800385356 255 255 0
0.258788257837 -0.10998699069 0.266292005777 255 255 0
-0.259022682905 0.0530151985586 0.270573139191 255 255 0
0.0416550524533 0.108125209808 0.208373203874 255 255 0
-0.0737564191222 0.10893958807 0.238413751125 255 255 0
-0.0340409018099 0.107894837856 0.185874506831 255 255 0
-0.0983269661665 0.108800835907 0.245738402009 255 255 0
-0.132832199335 0.105663761497 -0.121781982481 255 255 0
-0.173970684409 0.104078628123 0.0190213918686 255 255 0
0.0521285943687 0.106611818075 -0.147626593709 255 255 0
-0.260785341263 -0.103999331594 0.0259017571807 255 255 0
-0.189985051751 0.108711913228 -0.00254793115892 255 255 0
0.0053025172092 0.106334932148 0.199371024966 255 255 0
-0.264070153236 -0.104921802878 -0.201235815883 255 255 0
0.00415755016729 0.108770161867 -0.159851670265 255 255 0
0.25868922472 -0.110541246831 -0.0192393306643 255 255 0
0.00131147739012 0.108648739755 0.241697609425 255 255 0
0.0977112278342 0.107559293509 0.234386965632 255 255 0
0.00304498057812 0.107959315181 0.241563051939 255 255 0
-0.173657059669 0.102558247745 0.0573238953948 255 255 0
0.0490907020867 0.106796689332 -0.139080300927 255 255 0
0.0339033678174 0.106305204332 0.20335547626 255 255 0
-0.262528985739 -0.101130887866 0.110415183008 255 255 0
0.175937354565 0.100980825722 0.0169608145952 255 255 0
-0.26169231534 -0.105446375906 -0.145292893052 255 255 0
-0.261758565903 -0.103937916458 0.00746038369834 255 255 0
-0.0296965781599 0.107259348035 -0.116772547364 255 255 0
-0.0300513096154 0.109008908272 -0.173699513078 255 255 0
0.258607119322 -0.110402412713 0.128249570727 255 255 0
0.118086002767 0.108036458492 0.226668700576 255 255 0
0.252448022366 0.103093162179 0.254226326942 255 255 0
-0.260453015566 -0.104112163186 -0.0969539582729 255 255 0
-0.231445357203 -0.0262977518141 -0.346445292234 255 255 0
-0.0874124020338 0.104945585132 0.280950903893 255 255 0
-0.0139240203425 0.10893894732 -0.159305378795 255 255 0
-0.259374320507 -0.104777343571 -0.125069379807 255 255 0
-0.247944429517 -0.0314347594976 -0.347669631243 255 255 0
-0.0708910301328 0.109722688794 0.227106824517 255 255 0
-0.0125058162957 0.107892014086 -0.159562319517 255 255 0
-0.232337892056 -0.0268269535154 -0.34633743763 255 255 0
-0.238575965166 0.111466303468 -0.327834367752 255 255 0
0.0597678087652 0.10624525696 0.259459644556 255 255 0
0.0600852109492 0.108926251531 0.241261467338 255 255 0
0.258689314127 -0.109098687768 -0.0512453690171 255 255 0
-0.0947585180402 0.109953187406 -0.167995870113 255 255 0
0.25995233655 -0.112037904561 -0.0517615787685 255 255 0
-0.26723369956 -0.102285124362 0.195271879435 255 255 0
-0.264286935329 -0.106072746217 -0.171490505338 255 255 0
0.0794755220413 0.105219721794 -0.153051421046 255 255 0
0.0589755736291 0.108602054417 0.241260036826 255 255 0
0.17428304255 0.100317202508 -0.00982992444187 255 255 0
0.149971321225 0.101411774755 -0.114725597203 255 255 0
0.136074662209 0.106265291572 0.225832745433 255 255 0
-0.114530026913 0.109235592186 0.245943024755 255 255 0
-0.257770001888 0.0366079024971 0.274600863457 255 255 0
0.134773790836 0.106347948313 0.219870254397 255 255 0
0.0843363404274 0.107751190662 -0.177792400122 255 255 0
-0.0845378264785 0.1106024459 -0.175413295627 255 255 0
-0.0894653499126 0.110400885344 -0.171379908919 255 255 0
-0.219587877393 0.151995539665 -0.064957678318 255 255 0
-0.258850634098 -0.10371183604 -0.278901785612 255 255 0
0.00614348612726 0.107694663107 0.208475366235 255 255 0
-0.0429134778678 0.105913959444 0.266654908657 255 255 0
-0.261126458645 -0.105820029974 -0.0588354952633 255 255 0
-0.182066857815 0.108203098178 0.110233731568 255 255 0
0.1972245574 0.0998451858759 -0.337261110544 255 255 0
0.0677560418844 0.107060648501 -0.152652233839 255 255 0
-0.196023792028 0.108772702515 0.0905126407743 255 255 0
0.258094519377 -0.110088229179 0.0280331224203 255 255 0
0.0571848042309 0.106471993029 0.204054057598 255 255 0
0.175703734159 0.100047588348 -0.00924242753536 255 255 0
-0.173375502229 0.101689703763 0.056766204536 255 255 0
0.258740156889 -0.109804034233 0.262837648392 255 255 0
0.0502200648189 0.107390113175 -0.164623811841 255 255 0
0.258888632059 -0.00456697959453 -0.329236984253 255 255 0
-0.259152501822 0.0519360303879 0.266764551401 255 255 0
0.0899510011077 0.107636161149 0.206254243851 255 255 0
-0.172820731997 0.102110281587 0.140151098371 255 255 0
0.100199379027 0.112760812044 -0.190868601203 255 255 0
0.205555066466 -0.112207300961 0.287043422461 255 255 0
0.25433960557 0.102991349995 0.157932564616 255 255 0
0.0482116602361 0.106068357825 0.262515902519 255 255 0
-0.104165501893 0.103535868227 0.167034670711 255 255 0
-0.0824565961957 0.107522577047 0.246604710817 255 255 0
-0.220794901252 0.151676610112 -0.064587533474 255 255 0
0.135436072946 0.102901004255 -0.114542871714 255 255 0
0.107256516814 0.107790641487 0.230982676148 255 255 0
0.257119596004 -0.109252788126 0.171292692423 255 255 0
-0.10063957423 0.108946919441 -0.171416267753 255 255 0
0.261017918587 -0.111173406243 -0.0843399092555 255 255 0
-0.0314948000014 0.10846953094 -0.116813540459 255 255 0
0.204088583589 0.102660059929 0.281636506319 255 255 0
0.25884860754 -0.109993837774 0.0663029178977 255 255 0
0.179656386375 0.105101689696 0.165935337543 255 255 0
0.0645193830132 0.105260506272 -0.157220557332 255 255 0
0.257863491774 -0.109484985471 -0.0322912223637 255 255 0
-0.232399448752 0.110512465239 -0.0567450858653 255 255 0
-0.0350194908679 0.108723521233 -0.118607617915 255 255 0
0.090314604342 0.107048608363 0.24567592144 255 255 0
0.261084705591 -0.11224257201 -0.310686886311 255 255 0
0.0424500182271 0.106558680534 0.198776930571 255 255 0
0.0597475282848 0.107282273471 0.241470530629 255 255 0
-0.027403915301 0.10856346786 -0.161286696792 255 255 0
-0.0442876070738 0.107642829418 0.245575755835 255 255 0
-0.188239812851 0.108708240092 0.0879490226507 255 255 0
0.0570454411209 0.106067866087 0.20269715786 255 255 0
0.0348332226276 0.107393674552 0.203340798616 255 255 0
-0.187716424465 0.10834030062 0.089531339705 255 255 0
0.0175903961062 0.107492268085 -0.171111360192 255 255 0
0.258835732937 -0.110649302602 0.031161531806 255 255 0
-0.0252999737859 0.107552148402 -0.115950398147 255 255 0
-0.173225492239 0.101239465177 0.139741793275 255 255 0
0.178744286299 0.104589290917 0.166663393378 255 255 0
-0.0817397013307 0.108640559018 0.245734959841 255 255 0
-0.254337638617 0.0140187609941 -0.328268826008 255 255 0
-0.204667761922 0.110113061965 -0.0304723493755 255 255 0
-0.11479383707 0.108173623681 0.24579796195 255 255 0
0.257270991802 -0.109576798975 0.226423233747 255 255 0
0.0182844121009 0.107452295721 -0.172899618745 255 255 0
-0.266112834215 -0.105658143759 -0.214790761471 255 255 0
0.0649103969336 0.107274018228 0.249610304832 255 255 0
0.0406044386327 0.108112201095 0.208479464054 255 255 0
0.0248919185251 0.107708096504 -0.127247810364 255 255 0
0.254655689001 -0.104347400367 -0.056095380336 255 255 0
-0.06834564358 0.108661666512 0.235599502921 255 255 0
-0.062153480947 0.10741725564 0.245923101902 255 255 0
0.25868666172 -0.108836270869 -0.156725153327 255 255 0
0.257278889418 -0.110108718276 0.0885883569717 255 255 0
0.0830662325025 0.107727326453 -0.177869558334 255 255 0
-0.126871466637 0.104465670884 0.166667893529 255 255 0
0.261386752129 -0.110474944115 0.194599881768 255 255 0
0.0883263647556 0.108135767281 0.217916622758 255 255 0
0.253919839859 0.103982299566 0.160534858704 255 255 0
-0.265015006065 -0.105439841747 -0.070524983108 255 255 0
0.032893396914 0.105181418359 0.280566394329 255 255 0
-0.016560215503 0.104767896235 0.280572474003 255 255 0
-0.0994807109237 0.107338152826 0.247664883733 255 255 0
-0.260717004538 -0.104317575693 -0.0955014899373 255 255 0
-0.0331437923014 0.106762059033 -0.117188625038 255 255 0
0.243265360594 -0.109322667122 -0.350798398256 255 255 0
-0.259587705135 -0.104628920555 -0.133035302162 255 255 0
-0.258547663689 -0.105037383735 -0.103362902999 255 255 0
-0.00710639730096 0.108075000346 0.246132567525 255 255 0
-0.138987839222 0.105713367462 0.280224055052 255 255 0
0.261183768511 -0.109224714339 -0.279195904732 255 255 0
-0.259982407093 -0.104896850884 -0.197913751006 255 255 0
0.10223415494 0.108246475458 0.234172835946 255 255 0
-0.0440509952605 0.107070073485 0.266056805849 255 255 0
0.258498370647 -0.110250778496 0.225943595171 255 255 0
0.0496641807258 0.106280364096 -0.180168643594 255 255 0
0.00465567084029 0.107131071389 -0.118334211409 255 255 0
-0.104997321963 0.104652777314 0.166559562087 255 255 0
0.0478025637567 0.106485381722 0.259804069996 255 255 0
0.119158111513 0.107980169356 0.226669445634 255 255 0
-0.0856721550226 0.110336989164 -0.175540611148 255 255 0
0.132591217756 0.1072191149 0.223105505109 255 255 0
-0.173012629151 0.103078484535 0.0213920734823 255 255 0
0.258924782276 -0.111083820462 0.08952755481 255 255 0
-0.0607166960835 0.109605804086 -0.122661411762 255 255 0
0.259021908045 -0.110709041357 0.0301458090544 255 255 0
-0.232875347137 0.111150145531 -0.318685054779 255 255 0
0.0516609363258 0.106837742031 -0.162197485566 255 255 0
-0.265344828367 -0.10667411238 -0.106203533709 255 255 0
0.257578551769 -0.109393917024 -0.0307291392237 255 255 0
-0.0140650151297 0.108694702387 0.240998491645 255 255 0
0.0118718966842 0.106118522584 0.203420057893 255 255 0
-0.00410851789638 0.108955964446 -0.123637966812 255 255 0
-0.0600574165583 0.108439281583 -0.12211356312 255 255 0
0.00477040512487 0.104750879109 -0.113095015287 255 255 0
-0.120292723179 0.109046056867 0.223030537367 255 255 0
0.256153404713 -0.106792397797 0.0291637387127 255 255 0
0.0501163229346 0.106034629047 -0.165287539363 255 255 0
-0.127458497882 0.109825544059 0.228388786316 255 255 0
0.0860138460994 0.105898603797 0.191136166453 255 255 0
0.26027789712 -0.108855850995 -0.325834780931 255 255 0
-0.221806615591 0.151749953628 -0.0592475943267 255 255 0
-0.0209623984993 0.107500068843 0.260095208883 255 255 0
0.260117411613 -0.110592894256 0.063639998436 255 255 0
0.0189939979464 0.107473887503 -0.124132931232 255 255 0
-0.26040533185 -0.103795900941 -0.237154394388 255 255 0
-0.173232153058 0.103469267488 -0.0842089504004 255 255 0
-0.260935753584 -0.105572424829 -0.062769420445 255 255 0
-0.175579562783 0.104531489313 0.0564544461668 255 255 0
0.258140742779 -0.109506934881 0.0644006282091 255 255 0
0.0436367206275 0.107760354877 0.200947985053 255 255 0
-0.266539722681 -0.104069687426 0.0612880848348 255 255 0
-0.193786039948 0.109479375184 0.0907306149602 255 255 0
-0.0913465023041 0.109635166824 0.240766391158 255 255 0
-0.257844656706 0.10457058996 0.275136709213 255 255 0
-0.265509486198 -0.105807125568 -0.068311445415 255 255 0
0.0319663919508 0.107606753707 0.203418374062 255 255 0
-0.0213113538921 0.108825996518 0.226675495505 255 255 0
-0.263690322638 -0.103323213756 0.220178022981 255 255 0
-0.0701986327767 0.108394011855 0.227265000343 255 255 0
0.094986230135 0.107059940696 0.243266493082 255 255 0
0.0542037896812 0.10792016983 0.245327055454 255 255 0
-0.115644872189 0.107627600431 0.24590626359 255 255 0
-0.10442520678 0.11009413749 -0.16680945456 255 255 0
0.177372142673 0.103180550039 0.115449696779 255 255 0
-0.00532611925155 0.106980487704 -0.116835594177 255 255 0
-0.00687848497182 0.106640219688 0.246064916253 255 255 0
0.0583667382598 0.107079185545 -0.155091792345 255 255 0
-0.267060726881 -0.103662565351 0.0405370481312 255 255 0
0.257696092129 -0.109074629843 0.160091355443 255 255 0
0.256950646639 0.101616024971 0.155615836382 255 255 0
-0.263349443674 -0.103418558836 0.228783011436 255 255 0
-0.266075640917 -0.105573780835 -0.216606795788 255 255 0
-0.182271018624 0.107979848981 0.115805372596 255 255 0
-0.027021676302 0.107755169272 0.203245460987 255 255 0
-0.182373538613 0.107829488814 0.119565293193 255 255 0
0.0504550300539 0.106380969286 -0.139194890857 255 255 0
0.102791011333 0.10751824826 0.236486986279 255 255 0
0.17315775156 0.10352551192 0.16788713634 255 255 0
-0.1192291677 0.108306407928 0.226067915559 255 255 0
0.262460947037 -0.110880464315 0.140244930983 255 255 0
-0.0213973782957 0.106887646019 -0.117878481746 255 255 0
0.0515989586711 0.106103986502 -0.181149080396 255 255 0
0.0504945032299 0.106848239899 -0.18085809052 255 255 0
-0.195038631558 0.108885578811 0.0903433486819 255 255 0
0.107818387449 0.106899373233 0.203900560737 255 255 0
-0.105032242835 0.104582317173 0.168324261904 255 255 0
-0.16300649941 0.103545561433 0.280534684658 255 255 0
0.257299810648 -0.107779957354 0.186195939779 255 255 0
-0.258075594902 0.106488980353 0.0882074832916 255 255 0
-0.173412561417 0.102393046021 0.0914733856916 255 255 0
-0.0448672436178 0.108531497419 0.245729550719 255 255 0
-0.203191384673 0.114704169333 -0.0577044077218 255 255 0
-0.0563547797501 0.107928238809 0.241433829069 255 255 0
0.255920350552 -0.107984408736 0.158231317997 255 255 0
-0.205017983913 0.149862885475 -0.0658508613706 255 255 0
-0.0290059894323 0.108002185822 0.203011348844 255 255 0
0.087897464633 0.108139134943 0.222400605679 255 255 0
0.0359316542745 0.106874711812 0.201043397188 255 255 0
-0.196921974421 0.108213990927 0.0913815796375 255 255 0
-0.217589393258 0.153944328427 -0.0643878430128 255 255 0
0.105283997953 0.105011619627 0.281310886145 255 255 0
0.00919716712087 0.108617156744 0.245750337839 255 255 0
0.102958023548 0.107476375997 0.237575039268 255 255 0
-0.105388656259 0.10314078629 0.166648834944 255 255 0
-0.105806276202 0.103306539357 0.168222397566 255 255 0
0.134896039963 0.106369912624 0.221323892474 255 255 0
0.118311397731 0.108341671526 0.219040244818 255 255 0
0.133503764868 0.105613179505 0.219492942095 255 255 0
0.262417048216 -0.111165829003 -0.00240863673389 255 255 0
-0.176078304648 0.103752158582 0.0834648162127 255 255 0
-0.20487691462 0.115811698139 -0.0598443038762 255 255 0
-0.0121497455984 0.105868346989 0.279622614384 255 255 0
0.173788681626 0.0992709621787 0.016378460452 255 255 0
0.257311582565 -0.109760552645 -0.019238203764 255 255 0
-0.105669729412 0.109599165618 -0.166779458523 255 255 0
-0.0687095299363 0.10883012414 -0.171534016728 255 255 0
-0.0823347941041 0.107235297561 0.204694807529 255 255 0
-0.128018960357 0.103836685419 0.280566513538 255 255 0
0.179907128215 0.103335000575 0.114199057221 255 255 0
0.253458857536 0.102094657719 -0.33285471797 255 255 0
-0.259532213211 0.10431407392 0.191759571433 255 255 0
-0.0469538271427 0.108521133661 0.210320368409 255 255 0
0.261707425117 -0.11006462574 -0.316991239786 255 255 0
-0.173438087106 0.103246092796 -0.0766681581736 255 255 0
-0.0636848285794 0.107292734087 0.248006686568 255 255 0
-0.00246404763311 0.109244324267 -0.124007791281 255 255 0
0.197200849652 0.101760029793 -0.336262881756 255 255 0
0.103713236749 0.107393972576 0.234489277005 255 255 0
-0.26312276721 -0.102934859693 0.0867795646191 255 255 0
-0.182124838233 0.106760978699 0.123213365674 255 255 0
0.175313219428 0.105020150542 0.167073115706 255 255 0
-0.264016360044 -0.104548156261 -0.27708786726 255 255 0
-0.0266101695597 0.105857364833 0.262302547693 255 255 0
-0.12054168433 0.110078409314 0.22348305583 255 255 0
-0.0522585064173 0.107989132404 0.23842382431 255 255 0
-0.121759869158 0.109401859343 0.222700387239 255 255 0
0.257597178221 -0.110877647996 0.25118303299 255 255 0
-0.0827341377735 0.108839347959 0.247832491994 255 255 0
-0.182750031352 0.106329351664 0.12154699862 255 255 0
0.0936935171485 0.108577601612 0.234521254897 255 255 0
0.260889708996 -0.11162057519 0.0268843099475 255 255 0
0.259507089853 -0.110828764737 0.0267016217113 255 255 0
0.256712794304 -0.10985545069 0.0900873839855 255 255 0
-0.0285236127675 0.106029652059 -0.116225637496 255 255 0
-0.26141884923 -0.103865198791 0.0111609855667 255 255 0
-0.0551839247346 0.108027935028 0.239627286792 255 255 0
0.0869324430823 0.106767058372 0.245768159628 255 255 0
0.25792658329 -0.109816238284 0.22349242866 255 255 0
-0.0653606802225 0.10739351809 0.204283088446 255 255 0
-0.265079706907 -0.102243117988 0.230915129185 255 255 0
-0.0212899707258 0.107364825904 0.26165536046 255 255 0
-0.175862208009 0.103454045951 0.029917165637 255 255 0
-0.219877377152 0.118060596287 -0.0706664100289 255 255 0
-0.0820536985993 0.108494535089 0.203589126468 255 255 0
-0.15654706955 0.110289625823 -0.133519858122 255 255 0
-0.0268998220563 0.107337355614 -0.115809708834 255 255 0
0.0586104132235 0.105617389083 -0.139612272382 255 255 0
-0.265622675419 -0.104708448052 0.0296385511756 255 255 0
-0.0223568063229 0.108839660883 -0.118011586368 255 255 0
0.0530811809003 0.106772422791 -0.161854103208 255 255 0
-0.265199393034 -0.106414332986 -0.0453539863229 255 255 0
-0.0898498222232 0.108899541199 0.210421025753 255 255 0
-0.255448102951 0.0631737783551 -0.326052874327 255 255 0
0.0905751138926 0.106132768095 -0.173681169748 255 255 0
-0.0890449881554 0.108942709863 0.209504619241 255 255 0
0.0122952051461 0.108273394406 0.247636303306 255 255 0
0.0518540926278 0.107790231705 0.229758143425 255 255 0
-0.0541733056307 0.107497364283 0.204022750258 255 255 0
-0.0246592182666 0.106088407338 -0.11627266556 255 255 0
-0.248312816024 0.109887436032 -0.0801030322909 255 255 0
0.112328797579 0.105785191059 -0.14790096879 255 255 0
-0.00460127927363 0.105978280306 -0.116800777614 255 255 0
0.103327482939 0.106515258551 0.2700304389 255 255 0
-0.215055704117 0.119816631079 -0.0705603659153 255 255 0
-0.0278893746436 0.107982933521 -0.117690481246 255 255 0
-0.00591033650562 0.108183071017 0.246081531048 255 255 0
-0.171723470092 0.100386574864 0.0580905675888 255 255 0
-0.203063860536 0.111534938216 -0.037601582706 255 255 0
-0.0664051771164 0.110044665635 -0.166860803962 255 255 0
-0.242250412703 0.109878174961 -0.106277778745 255 255 0
0.0480569973588 0.106750391424 0.200879812241 255 255 0
-0.184021040797 0.107882782817 0.0251969844103 255 255 0
-0.261532783508 -0.10401186347 0.0134739531204 255 255 0
0.257044255733 -0.105859458447 -0.152272537351 255 255 0
-0.245320633054 0.109376072884 -0.0456781350076 255 255 0
-0.00766770029441 0.107017762959 0.247611895204 255 255 0
-0.0283666718751 0.10795789212 -0.160979181528 255 255 0
-0.117099300027 0.108097560704 0.175702825189 255 255 0
-0.263852536678 -0.105981655419 -0.23261551559 255 255 0
0.0343530364335 0.105216853321 0.279982030392 255 255 0
-0.262102484703 -0.102496907115 0.223333761096 255 255 0
-0.266505330801 -0.106354117393 -0.20127774775 255 255 0
-0.0899171829224 0.108989559114 0.241120800376 255 255 0
0.0823811665177 0.105118393898 0.281711369753 255 255 0
-0.0141126140952 0.104725763202 0.279806822538 255 255 0
-0.0511886700988 0.108589522541 0.20176781714 255 255 0
-0.263099491596 -0.102107919753 0.194963231683 255 255 0
0.111109554768 0.103925481439 0.280759692192 255 255 0
-0.0530816763639 0.10776014626 0.204008638859 255 255 0
-0.0324244499207 0.10985507071 0.222470551729 255 255 0
-0.261250913143 -0.102672182024 0.0452680438757 255 255 0
-0.17311501503 0.103143289685 -0.0784496888518 255 255 0
-0.256531327963 -0.0989820957184 -0.310780853033 255 255 0
0.25696760416 -0.109337642789 -0.0741413086653 255 255 0
0.259882569313 -0.110485710204 -0.234858468175 255 255 0
-0.0929233729839 0.109875969589 0.241053387523 255 255 0
0.261674642563 0.0704075545073 0.265235126019 255 255 0
0.0942819789052 0.105939902365 0.197859272361 255 255 0
0.2551869452 0.00851525645703 0.274437248707 255 255 0
0.0125197656453 0.106816999614 0.247466161847 255 255 0
-0.182529866695 0.104535460472 0.279839843512 255 255 0
0.241205155849 0.103488907218 0.162503704429 255 255 0
-0.259779781103 -0.103672645986 -0.032296448946 255 255 0
0.258284628391 -0.111187681556 0.0500353090465 255 255 0
-0.0352191478014 0.107724383473 -0.119484178722 255 255 0
0.25718319416 -0.109473273158 0.225230574608 255 255 0
-0.17980247736 0.105936340988 0.0693962350488 255 255 0
0.0503345020115 0.108445107937 0.22975961864 255 255 0
-0.0069352532737 0.108106382191 0.247794866562 255 255 0
0.0338405445218 0.103706814349 -0.112524621189 255 255 0
0.0349385328591 0.107169099152 0.20109449327 255 255 0
0.000489013968036 0.10823803395 0.239560186863 255 255 0
0.252145022154 0.102763175964 0.157712966204 255 255 0
-0.0273539740592 0.106712818146 0.202830120921 255 255 0
-0.259166270494 0.0679236128926 0.263184696436 255 255 0
-0.260366022587 -0.105625502765 -0.0514756143093 255 255 0
-0.266493499279 -0.105232812464 -0.167757868767 255 255 0
0.150592714548 0.101014100015 -0.113715775311 255 255 0
0.124911718071 0.107242941856 0.222807019949 255 255 0
0.0676816105843 0.108128242195 0.206295490265 255 255 0
-0.172300800681 0.101388841867 0.0997739806771 255 255 0
-0.0253140553832 0.106423251331 -0.115467920899 255 255 0
0.0537366047502 0.105624139309 -0.14461915195 255 255 0
-0.263660818338 -0.105490446091 0.020033756271 255 255 0
-0.259305804968 0.106512472034 0.234839588404 255 255 0
0.261026352644 -0.111969023943 0.0328971482813 255 255 0
-0.103496074677 0.11034309864 -0.166475757957 255 255 0
0.057924054563 0.106441088021 -0.139137089252 255 255 0
-0.157003894448 0.108845099807 -0.133601039648 255 255 0
-0.206445276737 0.115164741874 -0.0699714571238 255 255 0
-0.267082959414 -0.106491692364 -0.141252875328 255 255 0
-0.0457874387503 0.106754273176 -0.114617221057 255 255 0
-0.264084160328 -0.102626048028 0.259084224701 255 255 0
-0.201860502362 0.110834434628 -0.0371905528009 255 255 0
-0.155873030424 0.109299570322 -0.132752820849 255 255 0
0.052265804261 0.107096709311 -0.158796653152 255 255 0
0.00773804355413 0.105619169772 -0.114445723593 255 255 0
-0.128641605377 0.109036885202 0.228517815471 255 255 0
-0.174950242043 0.103601299226 0.0840011462569 255 255 0
-0.260810941458 -0.104156911373 -0.23360222578 255 255 0
-0.259356588125 0.102558009326 0.274807304144 255 255 0
0.00256977742538 0.107573904097 -0.166904866695 255 255 0
-0.0622521787882 0.10728622973 0.248042613268 255 255 0
-0.112197294831 0.108628153801 0.212549552321 255 255 0
-0.267819970846 -0.102664701641 0.064448826015 255 255 0
-0.206201761961 0.105367049575 0.278965502977 255 255 0
-0.031589820981 0.108215123415 0.239878326654 255 255 0
0.00903705786914 0.107409663498 0.212197989225 255 255 0
-0.265455693007 -0.10472702235 -0.296521544456 255 255 0
0.0536874048412 0.106657862663 0.247804895043 255 255 0
0.257508546114 -0.110358685255 0.141092300415 255 255 0
-0.182558462024 0.106268152595 0.12049600482 255 255 0
-0.15462026 0.104063533247 0.167045086622 255 255 0
-0.174045935273 0.104019649327 -0.0778323560953 255 255 0
0.232628032565 -0.107081986964 0.281539946795 255 255 0
-0.175158709288 0.10326808691 -0.00567623926327 255 255 0
-0.207001179457 0.118462778628 -0.0421064049006 255 255 0
0.0728786960244 0.107501551509 0.247544810176 255 255 0
-0.0221065878868 0.104731179774 0.280507951975 255 255 0
0.0869866460562 0.107799589634 0.216682463884 255 255 0
0.0338872149587 0.108542777598 0.245399445295 255 255 0
0.256887614727 -0.110424421728 0.0506666749716 255 255 0
-0.261605143547 -0.105456158519 -0.143516167998 255 255 0
-0.261174052954 -0.102757535875 0.0490643568337 255 255 0
-0.119070880115 0.108077041805 0.175406962633 255 255 0
0.00159605836961 0.108521446586 0.239149302244 255 255 0
-0.192943751812 0.110237240791 -0.0363652072847 255 255 0
-0.0474279895425 0.105391651392 -0.113603927195 255 255 0
0.0896377041936 0.106919907033 -0.173756897449 255 255 0
-0.259320616722 0.103771604598 0.273101806641 255 255 0
0.255972236395 -0.105748049915 0.157808050513 255 255 0
0.255194991827 0.101621054113 0.127733573318 255 255 0
-0.214132547379 0.152227804065 -0.065455660224 255 255 0
0.180734246969 0.105041749775 0.167669400573 255 255 0
0.257115185261 -0.107788294554 0.188702359796 255 255 0
0.138473823667 0.106231018901 0.221991926432 255 255 0
0.252725601196 0.101811252534 -0.331972509623 255 255 0
0.256622940302 -0.107838399708 -0.152915745974 255 255 0
0.185172364116 0.104805372655 0.164911463857 255 255 0
0.137533485889 0.106766141951 0.221942722797 255 255 0
-0.263932228088 -0.104419641197 -0.345294833183 255 255 0
0.261719822884 -0.110287174582 -0.162672802806 255 255 0
-0.173477828503 0.102211847901 -0.00337713677436 255 255 0
0.257318228483 -0.108129806817 -0.105347335339 255 255 0
0.260742008686 -0.0235025882721 -0.131814569235 255 255 0
-0.174030929804 0.1031267941 0.0921072810888 255 255 0
-0.0455042943358 0.107009448111 -0.116399548948 255 255 0
-0.258431434631 0.106797039509 0.178706258535 255 255 0
-0.217292621732 0.110579840839 -0.104425095022 255 255 0
-0.173483535647 0.104079127312 -0.0792099237442 255 255 0
0.258845061064 -0.110500022769 0.0775778964162 255 255 0
0.0906957909465 0.106655701995 0.206476897001 255 255 0
-0.00270259869285 0.1085203439 0.238273516297 255 255 0
0.249952465296 0.103756383061 0.245967015624 255 255 0
-0.0637391135097 0.109378673136 -0.167785644531 255 255 0
0.0535865053535 0.105927698314 -0.149466693401 255 255 0
-0.266502022743 -0.105765067041 -0.218343243003 255 255 0
0.182638093829 0.104005090892 0.11484002322 255 255 0
0.263889878988 0.0728848427534 -0.316035270691 255 255 0
-0.193091660738 0.110365413129 -0.0373489633203 255 255 0
0.0580716170371 0.105841763318 -0.155355468392 255 255 0
0.255968779325 0.10175909102 0.167717471719 255 255 0
0.263151288033 0.0699313059449 -0.315989583731 255 255 0
-0.0627060234547 0.108549430966 -0.168353185058 255 255 0
-0.19060434401 0.108825705945 0.049898725003 255 255 0
-0.263489484787 -0.103929236531 -0.286061257124 255 255 0
0.101690396667 0.105913601816 0.25950178504 255 255 0
-0.116540275514 0.10683888942 0.174971982837 255 255 0
0.0519063398242 0.106947787106 0.247791692615 255 255 0
-0.18026278913 0.107098206878 0.0732157602906 255 255 0
-0.249230757356 0.11024389416 -0.0764696374536 255 255 0
-0.258234500885 0.0670772567391 0.270776748657 255 255 0
0.258025944233 -0.110401175916 -0.0638531297445 255 255 0
-0.00660682842135 0.107971251011 0.20210185647 255 255 0
-0.217695623636 0.109523937106 -0.104486837983 255 255 0
-0.180319666862 0.107046864927 0.0750698819757 255 255 0
0.260557889938 -0.108970031142 -0.326822072268 255 255 0
-0.26203456521 -0.105527058244 -0.346539288759 255 255 0
-0.264535903931 -0.102419532835 0.245349928737 255 255 0
0.257114946842 -0.110088028014 -0.00950048211962 255 255 0
-0.0702744349837 0.10729008913 0.205851525068 255 255 0
-0.217739477754 0.151473209262 -0.0413148216903 255 255 0
-0.118741162121 0.110033191741 0.224998697639 255 255 0
-0.0346734710038 0.106967769563 0.267908096313 255 255 0
-0.00963004119694 0.107860341668 0.203746423125 255 255 0
0.260519117117 -0.110539563 -0.141976118088 255 255 0
-0.266269415617 -0.105461634696 -0.0254482086748 255 255 0
-0.059309668839 0.108039602637 0.238466724753 255 255 0
-0.0509102866054 0.104456759989 0.281177908182 255 255 0
-0.174507677555 0.103069543839 -0.00487420801073 255 255 0
-0.183360591531 0.10721937567 0.121695555747 255 255 0
-0.179177522659 0.106525227427 0.0722821429372 255 255 0
-0.183680459857 0.107449524105 0.109531283379 255 255 0
-0.129894554615 0.108926914632 0.229110002518 255 255 0
-0.26713514328 -0.105126917362 0.279563993216 255 255 0
0.0309678353369 0.104364864528 -0.114905416965 255 255 0
0.11150637269 0.105443231761 -0.119292207062 255 255 0
