ply
format ascii 1.0
comment https://github.com/EricCJoyce
element vertex 828
property float x
property float y
property float z
property uchar red
property uchar green
property uchar blue
end_header
-0.465479254723 -0.0295875202864 -0.109151273966 255 255 0
-0.105756118894 -0.0438943095505 0.970472693443 255 255 0
-0.168088495731 -0.0374442264438 1.08328425884 255 255 0
0.254030108452 -0.0604854486883 -0.269776314497 255 255 0
0.258466333151 -0.0553794503212 0.296783387661 255 255 0
-0.320482820272 -0.0444237366319 0.892251968384 255 255 0
0.239963233471 -0.0716875195503 -0.70464938879 255 255 0
0.0683048516512 -0.0394732914865 -0.982690751553 255 255 0
0.266186833382 -0.0596943162382 -0.286609381437 255 255 0
0.416111499071 -0.0428558215499 0.960296034813 255 255 0
-0.177524104714 -0.0299697425216 -0.263332247734 255 255 0
-0.541146695614 -0.0590575970709 0.526772379875 255 255 0
-0.0476627349854 -0.0235675536096 0.447370260954 255 255 0
0.0599911436439 -0.0389201678336 0.274415254593 255 255 0
-0.465365260839 -0.038881637156 -0.838830828667 255 255 0
0.238031372428 -0.063414350152 -0.545246779919 255 255 0
-0.243839561939 -0.0694793984294 -0.0868851318955 255 255 0
0.0597264580429 -0.0389748811722 0.275592923164 255 255 0
-0.212085202336 -0.0557333193719 -0.468208014965 255 255 0
-0.484613597393 -0.0334332026541 0.312087327242 255 255 0
-0.170823872089 -0.0304803457111 -0.336743444204 255 255 0
-0.0860888287425 -0.0483441948891 1.06722772121 255 255 0
0.267888396978 -0.0587583146989 -0.5606777668 255 255 0
0.270636916161 -0.0557214990258 -0.287854671478 255 255 0
-0.481125682592 -0.0379415340722 0.91743427515 255 255 0
-0.252724349499 -0.0631718933582 0.961069703102 255 255 0
-0.498777985573 -0.0437040925026 -1.15835475922 255 255 0
0.2496265769 -0.0530064888299 0.922170937061 255 255 0
0.0463390946388 -0.0257278624922 0.665568292141 255 255 0
-0.202112421393 -0.0430696420372 -0.234295502305 255 255 0
-0.48542368412 -0.0364690981805 0.885470807552 255 255 0
0.485555797815 -0.0303165894002 0.0982677564025 255 255 0
0.488538622856 -0.0344959124923 0.865719437599 255 255 0
-0.224465459585 -0.0628390088677 -0.483974963427 255 255 0
0.062667734921 -0.0475147366524 0.121984913945 255 255 0
0.441304385662 -0.0314779095352 -0.21611712873 255 255 0
-0.190700307488 -0.0334238372743 -0.188899114728 255 255 0
-0.476366460323 -0.0376492105424 -0.61190444231 255 255 0
0.484199166298 -0.0302518140525 0.0968340933323 255 255 0
0.169369801879 -0.039028801024 0.956287503242 255 255 0
0.47397044301 -0.0328501984477 0.0682017952204 255 255 0
0.385271012783 -0.0434996448457 0.97350114584 255 255 0
-0.292000025511 -0.0737693458796 -0.587515592575 255 255 0
0.261284947395 -0.0572671033442 0.168460786343 255 255 0
-0.47132191062 -0.0342672616243 0.245830714703 255 255 0
0.297912836075 -0.055000115186 0.966448843479 255 255 0
-0.280393242836 -0.0721953436732 -0.621302127838 255 255 0
-0.202128097415 -0.0451478436589 -0.35856154561 255 255 0
-0.066813826561 -0.0238158889115 0.536910891533 255 255 0
-0.190834507346 -0.0370164550841 -0.534251451492 255 255 0
0.0953312143683 -0.0553066022694 -0.385580956936 255 255 0
0.389187932014 -0.0242591779679 0.218774452806 255 255 0
0.043396577239 -0.0291737169027 0.655446171761 255 255 0
-0.254452109337 -0.0449232496321 1.07385289669 255 255 0
-0.235272973776 -0.0698437765241 -0.501888751984 255 255 0
0.384386271238 -0.041939932853 1.02434754372 255 255 0
-0.108086831868 -0.0436688438058 0.965538978577 255 255 0
-0.0555261000991 -0.0438741594553 0.971220135689 255 255 0
-0.169469490647 -0.0337934978306 -0.688108146191 255 255 0
-0.271360576153 -0.0690358877182 -0.689457058907 255 255 0
-0.539592266083 -0.0484818182886 -0.378985971212 255 255 0
-0.489841252565 -0.0395545810461 -0.570991396904 255 255 0
-0.205580532551 -0.0497288294137 -0.513368546963 255 255 0
0.0933392122388 -0.0407393835485 1.07612979412 255 255 0
-0.0318253226578 -0.0225481726229 0.848775267601 255 255 0
0.236821115017 -0.0536276958883 0.935311555862 255 255 0
-0.0612245537341 -0.0365940146148 -0.963429450989 255 255 0
0.109976239502 -0.0536955669522 0.256847172976 255 255 0
0.355728775263 -0.0575645752251 0.938685595989 255 255 0
-0.526636779308 -0.043751552701 -0.142567247152 255 255 0
-0.499636530876 -0.0345889851451 -0.424819111824 255 255 0
-0.177670836449 -0.0289084743708 -0.286300569773 255 255 0
-0.216541811824 -0.0355402827263 0.871706902981 255 255 0
0.422302007675 -0.0464485771954 0.868949830532 255 255 0
0.0149292647839 -0.0398341827095 -0.976138949394 255 255 0
-0.255357146263 -0.0704812705517 -0.57318520546 255 255 0
-0.540876448154 -0.0517052598298 0.029208438471 255 255 0
0.354746818542 -0.0264508239925 -0.242320075631 255 255 0
0.0943016037345 -0.0559652671218 -0.371352285147 255 255 0
-0.00891037192196 -0.0447779819369 0.907258212566 255 255 0
-0.487830638885 -0.0467460006475 -1.17689073086 255 255 0
0.488404601812 -0.0310606472194 0.114435628057 255 255 0
0.0835353732109 -0.04990792647 0.935825645924 255 255 0
-0.257882595062 -0.0667013451457 -0.401184827089 255 255 0
0.515447378159 -0.0361710041761 -0.028197851032 255 255 0
0.34226962924 -0.0607682429254 1.00769305229 255 255 0
-0.191202774644 -0.0360247120261 -0.301866441965 255 255 0
-0.0609513670206 -0.0237219631672 0.873488843441 255 255 0
0.0612823851407 -0.0476010665298 0.123820349574 255 255 0
-0.126287490129 -0.06108622998 1.00353479385 255 255 0
0.173278152943 -0.0490346029401 -0.434847056866 255 255 0
-0.174715250731 -0.03060561046 -0.164888367057 255 255 0
-0.200634941459 -0.0425210222602 -0.246132284403 255 255 0
-0.262081384659 -0.0659283101559 -0.418011456728 255 255 0
0.230606004596 -0.0533981621265 1.01481628418 255 255 0
0.206922665238 -0.035301245749 0.961129307747 255 255 0
-0.276727676392 -0.0689035505056 0.322969555855 255 255 0
-0.0468690171838 -0.0237392634153 0.451104640961 255 255 0
0.138147309422 -0.0544152483344 0.273084163666 255 255 0
-0.0327624119818 -0.0245454069227 0.215027019382 255 255 0
0.268883258104 -0.057406809181 -0.251427412033 255 255 0
-0.336713880301 -0.0356473997235 0.278867036104 255 255 0
-0.529978394508 -0.0446738265455 -0.376543015242 255 255 0
0.021347887814 -0.0355046465993 1.04577660561 255 255 0
-0.198444098234 -0.0301398281008 0.839890301228 255 255 0
-0.061804857105 -0.0268319807947 0.433058351278 255 255 0
0.0309273339808 -0.0405085645616 1.06966459751 255 255 0
-0.441442728043 -0.0908295735717 -1.06804871559 255 255 0
-0.261604219675 -0.0593131408095 1.04659664631 255 255 0
-0.263735860586 -0.0409555695951 0.903158962727 255 255 0
0.120010912418 -0.049821652472 0.934818208218 255 255 0
0.239704191685 -0.066517457366 -0.64729487896 255 255 0
-0.367698132992 -0.0257115326822 -0.106102444232 255 255 0
0.0243559144437 -0.0225055143237 0.849175810814 255 255 0
0.41562089324 -0.039728526026 1.06184864044 255 255 0
0.221364498138 -0.0566917434335 0.408924221992 255 255 0
0.0464017465711 -0.0234999544919 0.871214032173 255 255 0
0.34443205595 -0.0226553231478 0.0137778641656 255 255 0
-0.507888436317 -0.0385273769498 0.760244727135 255 255 0
0.249056190252 -0.0667298361659 -0.557860791683 255 255 0
0.117254398763 -0.0665236711502 1.04231595993 255 255 0
0.194606915116 -0.0459064655006 0.174909889698 255 255 0
-0.0777901336551 -0.0399408452213 0.970200181007 255 255 0
0.139670968056 -0.0551027022302 0.118759825826 255 255 0
-0.485802263021 -0.0415913760662 -0.611439824104 255 255 0
-0.172948598862 -0.0308291316032 -0.329246073961 255 255 0
0.223513692617 -0.0613033659756 -0.50665050745 255 255 0
0.241927042603 -0.0665560588241 -0.646407306194 255 255 0
0.334909945726 -0.148224428296 1.03839695454 255 255 0
0.186131060123 -0.0314724780619 1.04702436924 255 255 0
-0.437925517559 -0.0590771734715 -0.993497312069 255 255 0
0.0299679432064 -0.0272449143231 0.698010265827 255 255 0
-0.479263961315 -0.0383101962507 0.925455629826 255 255 0
-0.309434473515 -0.0450680330396 1.07569038868 255 255 0
-0.476863950491 -0.0300360340625 -0.0150959882885 255 255 0
-0.0516644492745 -0.0248323567212 0.559263288975 255 255 0
-0.250879228115 -0.0446927510202 1.06894934177 255 255 0
0.399570256472 -0.024664381519 0.227787300944 255 255 0
0.210932642221 -0.0390153899789 0.956976473331 255 255 0
0.264248013496 -0.0575231052935 -0.249020084739 255 255 0
0.526930987835 -0.0398530103266 -0.117488086224 255 255 0
-0.539960324764 -0.0500435382128 0.416362166405 255 255 0
0.442445188761 -0.0366740785539 0.996385157108 255 255 0
-0.507991373539 -0.0388012230396 0.766168057919 255 255 0
-0.55089700222 -0.078956335783 -0.481373310089 255 255 0
0.25910282135 -0.0307099297643 0.863006651402 255 255 0
0.163097411394 -0.0388390831649 -0.90956312418 255 255 0
-0.275715082884 -0.0356296934187 0.872247576714 255 255 0
0.47541859746 -0.0333313532174 1.00944638252 255 255 0
0.239116951823 -0.0366170592606 0.905742764473 255 255 0
0.22674113512 -0.0433751307428 1.0516898632 255 255 0
-0.476067841053 -0.0299303773791 -0.017363557592 255 255 0
-0.532640039921 -0.0476451106369 -0.650782048702 255 255 0
-0.226357012987 -0.0652774870396 -0.600489199162 255 255 0
0.540913105011 -0.043219011277 -0.128939390182 255 255 0
0.232950523496 -0.0576752088964 -0.415702193975 255 255 0
0.268232554197 -0.0580936297774 -0.405816704035 255 255 0
0.289194017649 -0.03560782969 -0.299569249153 255 255 0
0.458164781332 -0.026992302388 -0.143548369408 255 255 0
0.201676011086 -0.0345328748226 0.944378852844 255 255 0
-0.265466958284 -0.0654865503311 -0.343032538891 255 255 0
-0.475051760674 -0.0378697253764 -0.607101738453 255 255 0
-0.0478228405118 -0.0246048644185 0.131340742111 255 255 0
0.398631066084 -0.0329109877348 -0.355348169804 255 255 0
0.136608451605 -0.054531686008 -0.73984926939 255 255 0
0.235567227006 -0.058873385191 -0.389713048935 255 255 0
0.300742506981 -0.0631419420242 -1.05737233162 255 255 0
0.179520905018 -0.0526126623154 -0.441891938448 255 255 0
-0.513699531555 -0.0484910532832 -1.13973867893 255 255 0
-0.202282503247 -0.0471274554729 -0.400346189737 255 255 0
0.156555205584 -0.0280354209244 0.887334644794 255 255 0
0.168128788471 -0.0286477655172 0.900857925415 255 255 0
0.411840677261 -0.0290975496173 -0.0144660277292 255 255 0
-0.245618164539 -0.0679676309228 -0.119640246034 255 255 0
-0.257929325104 -0.0693381205201 0.332816213369 255 255 0
-0.102432787418 -0.0362711064517 -1.05600583553 255 255 0
-0.34005188942 -0.0738394483924 0.935994565487 255 255 0
-0.252830415964 -0.0655055642128 -0.342323362827 255 255 0
0.0308207124472 -0.026136951521 0.758673071861 255 255 0
-0.285269677639 -0.0657225176692 -0.253774911165 255 255 0
-0.383558094501 -0.0364365950227 0.633313238621 255 255 0
0.218878626823 -0.0563956052065 0.40245744586 255 255 0
0.478369563818 -0.0436601378024 1.06378555298 255 255 0
-0.141330197453 -0.034399073571 -0.505104899406 255 255 0
0.459477514029 -0.0307055991143 -0.147783055902 255 255 0
0.174084320664 -0.053521219641 -0.591595828533 255 255 0
0.250831723213 -0.0751260444522 -0.71460467577 255 255 0
0.203152239323 -0.0341977290809 1.02177941799 255 255 0
0.0962748005986 -0.0269373115152 0.862152338028 255 255 0
0.14361576736 -0.0584549754858 -0.739405751228 255 255 0
-0.554548442364 -0.0767432078719 0.232213199139 255 255 0
0.363963156939 -0.0301143378019 -0.332063883543 255 255 0
0.139471650124 -0.0512744002044 0.120532177389 255 255 0
-0.234526619315 -0.0690225288272 -0.604260325432 255 255 0
0.152505770326 -0.0405656322837 1.07376384735 255 255 0
-0.171232149005 -0.0373378098011 -0.696071982384 255 255 0
0.437845766544 -0.0327586829662 0.742314934731 255 255 0
0.290917992592 -0.0270057618618 -0.0625794157386 255 255 0
0.0114872045815 -0.0309071578085 1.03067672253 255 255 0
-0.466000288725 -0.0278687868267 -0.315591573715 255 255 0
-0.539320588112 -0.0499086268246 0.751930177212 255 255 0
-0.403261035681 -0.0350812338293 0.603520154953 255 255 0
-0.51964366436 -0.0386796146631 -0.252154827118 255 255 0
0.265061914921 -0.068044655025 -0.698268413544 255 255 0
-0.149338707328 -0.0289280954748 -0.20059043169 255 255 0
0.310767829418 -0.022649852559 -0.071751691401 255 255 0
-0.104229539633 -0.0347285792232 -1.00480902195 255 255 0
-0.00160526204854 -0.0242330618203 0.801328718662 255 255 0
-0.528659939766 -0.0407849662006 -0.12219119817 255 255 0
-0.18334428966 -0.0365492776036 -0.713420510292 255 255 0
0.438733667135 -0.0310606434941 0.705591738224 255 255 0
0.301555156708 -0.0294913128018 0.753018975258 255 255 0
-0.549612522125 -0.0670230165124 0.0219931155443 255 255 0
-0.0362741015851 -0.0321796163917 0.887850224972 255 255 0
0.519614934921 -0.0366834513843 0.236843466759 255 255 0
0.17499653995 -0.0533352345228 -0.595598876476 255 255 0
-0.18969835341 -0.0397173650563 1.04734575748 255 255 0
0.0521381795406 -0.0236279983073 0.87411993742 255 255 0
0.433188527822 -0.0286253355443 0.0604367032647 255 255 0
-0.489898175001 -0.0341004766524 0.74949246645 255 255 0
0.456117719412 -0.0242473371327 -0.118377149105 255 255 0
0.0394322648644 -0.0255135577172 0.153059795499 255 255 0
-0.533544301987 -0.0551454089582 -1.08082997799 255 255 0
-0.373289227486 -0.0257163476199 -0.106129996479 255 255 0
-0.376220971346 -0.0563040040433 0.894163072109 255 255 0
-0.0157321281731 -0.0388557910919 -1.0826510191 255 255 0
0.475665390491 -0.0350379310548 0.877144992352 255 255 0
-0.491198837757 -0.0331580005586 0.0521228648722 255 255 0
-0.0359301790595 -0.0239504352212 0.879022300243 255 255 0
-0.247173115611 -0.0694446340203 0.335374444723 255 255 0
0.0460046865046 -0.025942152366 0.670197486877 255 255 0
0.119264781475 -0.0497710667551 -0.84327352047 255 255 0
0.317867159843 -0.0215439777821 0.242957666516 255 255 0
0.296075373888 -0.0234496612102 0.199063509703 255 255 0
-0.252686649561 -0.0329993069172 0.815870881081 255 255 0
0.0765102431178 -0.0372730232775 1.08534240723 255 255 0
-0.486164718866 -0.0364179424942 -0.469542711973 255 255 0
0.0949367210269 -0.0600239224732 -0.537365853786 255 255 0
0.447911828756 -0.0186348352581 -0.0707839205861 255 255 0
-0.264332056046 -0.0630157664418 1.0420358181 255 255 0
0.18716019392 -0.0491986498237 0.33059245348 255 255 0
-0.305860638618 -0.0664515793324 1.03078722954 255 255 0
0.540094196796 -0.0448585115373 -0.0088632889092 255 255 0
0.540412425995 -0.0390674844384 0.796630263329 255 255 0
0.292875170708 -0.0281701888889 0.301136165857 255 255 0
-0.172503262758 -0.0329949222505 -0.62084209919 255 255 0
0.496156603098 -0.0335435345769 0.083727657795 255 255 0
0.175907820463 -0.0532565824687 -0.597279310226 255 255 0
-0.370897769928 -0.05179220438 1.05051136017 255 255 0
0.415347129107 -0.0373212136328 1.00975012779 255 255 0
0.135589599609 -0.0280988570303 0.888213396072 255 255 0
-0.0359605699778 -0.035676356405 1.04814207554 255 255 0
-0.543912649155 -0.0539418980479 0.754480361938 255 255 0
-0.189807191491 -0.0360128618777 -0.302089959383 255 255 0
-0.476110488176 -0.0385596640408 0.930928170681 255 255 0
0.53988546133 -0.0417090468109 0.769160807133 255 255 0
-0.0797201469541 -0.0272451266646 0.695430576801 255 255 0
-0.481315970421 -0.0281702876091 0.0290440618992 255 255 0
-0.29246366024 -0.0736604034901 0.93324136734 255 255 0
0.376936465502 -0.0132942795753 -0.103402964771 255 255 0
-0.011757556349 -0.0262987241149 0.591934382915 255 255 0
0.385720580816 -0.0369400940835 1.08542311192 255 255 0
0.184270307422 -0.0481238812208 -0.285059094429 255 255 0
0.377818316221 -0.0128163862973 -0.113723389804 255 255 0
-0.488410353661 -0.0380175933242 -0.519598722458 255 255 0
-0.0819845199585 -0.0268742069602 0.687350869179 255 255 0
0.38365906477 -0.0127578675747 -0.114852070808 255 255 0
-0.0304619763047 -0.037359893322 -0.776895642281 255 255 0
0.125324651599 -0.0422655083239 0.348344743252 255 255 0
-0.179216191173 -0.0384857468307 1.0209416151 255 255 0
0.423421055079 -0.0284659974277 0.14137673378 255 255 0
0.451671332121 -0.0243322253227 -0.116645023227 255 255 0
0.0380849726498 -0.0266502294689 0.516096889973 255 255 0
0.178814426064 -0.0383549630642 -0.919668734074 255 255 0
0.356151580811 -0.0592833608389 0.891270458698 255 255 0
0.170865058899 -0.0388340242207 1.03672599792 255 255 0
-0.250097364187 -0.0403008535504 0.889312803745 255 255 0
-0.53454220295 -0.0460245646536 0.414140850306 255 255 0
0.0752461031079 -0.0335305780172 1.08894741535 255 255 0
-0.426335155964 -0.0441866703331 0.969246327877 255 255 0
0.126449808478 -0.0497679337859 -0.843171954155 255 255 0
0.453773498535 -0.024834215641 -0.105732865632 255 255 0
-0.405230343342 -0.0429207645357 0.857732355595 255 255 0
0.443531990051 -0.0148819154128 -0.0674789249897 255 255 0
0.282061100006 -0.0400576144457 -0.288065880537 255 255 0
0.162987589836 -0.0337162464857 1.09503233433 255 255 0
0.246932700276 -0.0750386193395 -0.80120652914 255 255 0
-0.282781660557 -0.0681553408504 -0.370308250189 255 255 0
0.353637009859 -0.0234188586473 0.19975310564 255 255 0
0.219888702035 -0.0583518743515 -0.401367455721 255 255 0
0.077556848526 -0.0372859574854 0.916410803795 255 255 0
0.433832943439 -0.060952924192 -0.932368993759 255 255 0
-0.423569619656 -0.0344725698233 0.589870750904 255 255 0
0.132223919034 -0.0500178299844 -0.583774209023 255 255 0
-0.106463499367 -0.0363245308399 -1.05494475365 255 255 0
0.412956178188 -0.0325175486505 -0.363524347544 255 255 0
0.132745847106 -0.0411131903529 -0.945686578751 255 255 0
0.125135406852 -0.0415345691144 0.924849867821 255 255 0
-0.28883215785 -0.0657997056842 0.932464540005 255 255 0
0.121588386595 -0.0700163915753 1.03337943554 255 255 0
-0.182069376111 -0.0280563533306 0.541337311268 255 255 0
-0.0793542191386 -0.0237317606807 0.788649201393 255 255 0
0.496318519115 -0.0521108843386 -0.952994585037 255 255 0
0.44472309947 -0.0342641435564 0.944289922714 255 255 0
-0.0908229798079 -0.0265988111496 0.850419461727 255 255 0
0.374904215336 -0.0249960049987 0.149764150381 255 255 0
0.236314728856 -0.0573700070381 -0.845317542553 255 255 0
0.376428604126 -0.0483423173428 -0.952749609947 255 255 0
0.249721691012 -0.0621965862811 -0.402086526155 255 255 0
0.0146792186424 -0.0255220942199 0.491133600473 255 255 0
-0.293712645769 -0.0651073604822 0.3250413239 255 255 0
-0.362307280302 -0.0343401357532 0.503830254078 255 255 0
-0.13610881567 -0.0269271731377 0.60260373354 255 255 0
0.299950659275 -0.0437516868114 1.06156313419 255 255 0
-0.258663803339 -0.0678753480315 -0.46041688323 255 255 0
0.342749983072 -0.0215856321156 -0.00940891075879 255 255 0
0.448198884726 -0.0189695414156 -0.0635344162583 255 255 0
0.181541368365 -0.028063332662 0.888527333736 255 255 0
-0.450418442488 -0.0284791756421 -0.302016198635 255 255 0
-0.547289669514 -0.0675817206502 0.372609943151 255 255 0
0.266409248114 -0.0555859915912 0.978384435177 255 255 0
0.425227820873 -0.028520308435 0.142594531178 255 255 0
0.19994199276 -0.0511169917881 0.203168734908 255 255 0
0.331652462482 -0.0208019129932 -0.111247427762 255 255 0
-0.486745387316 -0.0281314384192 0.028075478971 255 255 0
-0.284508824348 -0.0705971419811 -0.486746609211 255 255 0
-0.245024859905 -0.0689770430326 -0.69011002779 255 255 0
0.461292803288 -0.0277889054269 -0.126236870885 255 255 0
-0.362585633993 -0.0365769788623 -0.970898151398 255 255 0
0.426079034805 -0.0856536403298 -1.07499456406 255 255 0
0.2751545012 -0.0423190779984 -0.91623711586 255 255 0
0.443081915379 -0.0734681710601 -1.08442246914 255 255 0
-0.346176803112 -0.0328239277005 0.471400916576 255 255 0
0.180060729384 -0.0325939469039 1.07114899158 255 255 0
-0.00468153972179 -0.0252789668739 0.739270567894 255 255 0
-0.0958368778229 -0.0328245051205 -0.961195766926 255 255 0
0.000708032108378 -0.025654764846 0.493675321341 255 255 0
0.0159815791994 -0.0478018000722 0.973277449608 255 255 0
0.47691693902 -0.0320366732776 0.981465995312 255 255 0
-0.269770056009 -0.0668200105429 -0.398896992207 255 255 0
0.543203234673 -0.0384727194905 0.529971539974 255 255 0
-0.170447036624 -0.0280209016055 -0.220718607306 255 255 0
-0.0909042060375 -0.031224058941 -0.911093711853 255 255 0
-0.481070995331 -0.0467846095562 -1.17589592934 255 255 0
-0.492812871933 -0.0346620865166 -0.423076450825 255 255 0
-0.244631871581 -0.042260222137 0.931840598583 255 255 0
-0.453325688839 -0.0908447727561 -1.06799995899 255 255 0
-0.0226871855557 -0.0366810522974 -1.04525625706 255 255 0
-0.126015856862 -0.0362873375416 -1.05621027946 255 255 0
0.37392488122 -0.0440140850842 1.06898403168 255 255 0
-0.183155730367 -0.036671269685 -0.710776269436 255 255 0
-0.177327543497 -0.0276176463813 -0.144988760352 255 255 0
-0.171307653189 -0.0351553447545 -0.574064254761 255 255 0
-0.0424345098436 -0.0237856190652 0.875302553177 255 255 0
0.0938977748156 -0.0641885623336 -0.701125442982 255 255 0
-0.0320498794317 -0.0364627428353 -1.05020081997 255 255 0
0.255975037813 -0.0420647338033 -0.922192752361 255 255 0
-0.210784226656 -0.0341881848872 1.09643852711 255 255 0
0.255124032497 -0.0320056527853 0.890951216221 255 255 0
-0.0658189728856 -0.0311576444656 -0.488849490881 255 255 0
0.389542371035 -0.0516856685281 0.896885931492 255 255 0
-0.3323995471 -0.0449271462858 0.479774206877 255 255 0
0.0796852558851 -0.0687494128942 0.666503608227 255 255 0
-0.00621706899256 -0.0311495065689 1.03550386429 255 255 0
-0.0788128897548 -0.0275261253119 0.870768666267 255 255 0
-0.260915309191 -0.0645168200135 -0.279291301966 255 255 0
-0.0220875460654 -0.0425181388855 -1.08816874027 255 255 0
0.196389898658 -0.0332443602383 1.08560812473 255 255 0
-0.146261841059 -0.0313076004386 -0.318263709545 255 255 0
-0.0993886440992 -0.0332048237324 -0.953049659729 255 255 0
0.0194292329252 -0.0453566834331 0.920448541641 255 255 0
-0.49082788825 -0.0343997515738 -0.428706407547 255 255 0
0.274414271116 -0.0399114452302 0.893243908882 255 255 0
0.2017621696 -0.051880095154 0.304342597723 255 255 0
0.200741410255 -0.0485779047012 0.148243933916 255 255 0
-0.053887937218 -0.028044629842 0.88257586956 255 255 0
0.307205796242 -0.0229543596506 -0.0652463510633 255 255 0
-0.00762769021094 -0.0356125496328 1.04742884636 255 255 0
-0.191290140152 -0.032295666635 -0.128707513213 255 255 0
-0.505472838879 -0.034274995327 -0.00866074580699 255 255 0
0.0400580428541 -0.0521458908916 -1.13222277164 255 255 0
-0.122514605522 -0.0582890994847 1.02771425247 255 255 0
-0.312873065472 -0.0704764351249 -0.320790708065 255 255 0
0.0115869799629 -0.0256070755422 0.492899656296 255 255 0
0.163218274713 -0.0338661670685 1.09828186035 255 255 0
-0.286456376314 -0.0643464922905 -0.198960751295 255 255 0
0.465766578913 -0.0329657457769 0.916689515114 255 255 0
-0.522461056709 -0.0492065250874 -0.87060880661 255 255 0
-0.0807984322309 -0.024436397478 0.634626746178 255 255 0
-0.0709508657455 -0.0524950996041 0.988170087337 255 255 0
-0.287948668003 -0.05945379287 0.964401483536 255 255 0
-0.238412514329 -0.0664073973894 -0.407086849213 255 255 0
0.215392917395 -0.0518207401037 0.218761205673 255 255 0
0.00381801836193 -0.035778388381 1.05128705502 255 255 0
0.477063089609 -0.0323860645294 0.90441185236 255 255 0
-0.237660616636 -0.0614598244429 -0.17565792799 255 255 0
0.399100542068 -0.0096774417907 -0.0965278893709 255 255 0
0.00153773894999 -0.0533714033663 0.924222350121 255 255 0
-0.169445231557 -0.0356875285506 -0.562504410744 255 255 0
-0.499710649252 -0.0370637476444 0.813383758068 255 255 0
-0.309239029884 -0.0646931678057 0.908039212227 255 255 0
0.355696469545 -0.0626856610179 0.964882493019 255 255 0
-0.0229225885123 -0.0278591308743 0.540819108486 255 255 0
-0.300767928362 -0.0610176771879 0.490232139826 255 255 0
-0.482571482658 -0.0291509330273 -0.0343832746148 255 255 0
0.0476631484926 -0.0504512451589 0.946737408638 255 255 0
-0.353733211756 -0.0554228238761 1.04486107826 255 255 0
-0.215016931295 -0.0342629887164 1.09795761108 255 255 0
0.00656453333795 -0.033831961453 1.09385097027 255 255 0
-0.540463447571 -0.0486224144697 0.724070668221 255 255 0
0.0292111635208 -0.0271406918764 0.526500999928 255 255 0
-0.530787885189 -0.0460025668144 -0.347809314728 255 255 0
0.0961539372802 -0.0654672831297 1.01895952225 255 255 0
0.244021251798 -0.0853617712855 -1.08559954166 255 255 0
-0.0227663740516 -0.0369241461158 -1.03999769688 255 255 0
-0.486940175295 -0.0319033637643 0.363546252251 255 255 0
0.445247918367 -0.0354415141046 0.969779551029 255 255 0
-0.352037876844 -0.051918849349 1.05369615555 255 255 0
-0.236477985978 -0.0377143770456 -1.02793288231 255 255 0
0.163674846292 -0.0377985052764 0.929530799389 255 255 0
-0.171564534307 -0.0331806764007 -0.616800367832 255 255 0
-0.532534062862 -0.0487230159342 -0.288982331753 255 255 0
-0.213329434395 -0.0549337975681 -0.147065997124 255 255 0
0.0195442829281 -0.0353393256664 1.04215669632 255 255 0
0.0514822676778 -0.0368401668966 -0.278503030539 255 255 0
-0.251157820225 -0.0837178453803 0.982612609863 255 255 0
0.317059397697 -0.0434833094478 -0.805438816547 255 255 0
0.402936667204 -0.00970439240336 -0.0958543121815 255 255 0
-0.488539069891 -0.0299408175051 -0.355903714895 255 255 0
0.101292215288 -0.0583717189729 0.950156867504 255 255 0
0.173513039947 -0.0415276437998 -0.935757756233 255 255 0
-0.0739124044776 -0.0362758338451 0.890983939171 255 255 0
-0.54712587595 -0.0597996152937 -0.0496382862329 255 255 0
-0.33444237709 -0.0417359173298 0.32605266571 255 255 0
-0.508956491947 -0.0380052439868 0.241212621331 255 255 0
0.0510705001652 -0.0407737158239 -0.954956769943 255 255 0
0.475832641125 -0.0494728386402 -0.925944209099 255 255 0
-0.0854678452015 -0.0369056984782 -1.12649226189 255 255 0
0.167834088206 -0.0414191260934 1.00797581673 255 255 0
0.43345195055 -0.0559645816684 -0.95570319891 255 255 0
0.0507187843323 -0.0293265990913 0.48969078064 255 255 0
0.0511862635612 -0.0294243376702 0.491816729307 255 255 0
0.370116591454 -0.0313953869045 0.795836746693 255 255 0
0.228488057852 -0.0510221719742 0.201789468527 255 255 0
0.0753762573004 -0.0570134334266 -0.349116802216 255 255 0
-0.178650066257 -0.0247481968254 0.385214239359 255 255 0
-0.289624065161 -0.0716170072556 -0.54941624403 255 255 0
0.0879966840148 -0.0622952133417 1.03474462032 255 255 0
-0.272486418486 -0.0629065334797 -0.314409136772 255 255 0
-0.0371470153332 -0.0350065901875 -0.912594616413 255 255 0
0.0398375205696 -0.0277250632644 0.200924366713 255 255 0
-0.377419799566 -0.0338282510638 0.66163367033 255 255 0
-0.314551770687 -0.0631707683206 1.04420673847 255 255 0
-0.344430804253 -0.0580244623125 1.0167593956 255 255 0
-0.538800477982 -0.0532654747367 0.232255160809 255 255 0
0.00573402456939 -0.0323612838984 0.892771065235 255 255 0
0.346742361784 -0.0655793622136 1.02728879452 255 255 0
0.269248425961 -0.0414492189884 -0.935199260712 255 255 0
-0.562179327011 -0.113819800317 -0.911877512932 255 255 0
0.478864312172 -0.0309490207583 0.957976043224 255 255 0
-0.1797388345 -0.035363048315 -0.400532245636 255 255 0
-0.156169310212 -0.0248508118093 0.641818583012 255 255 0
-0.486658781767 -0.0320543572307 0.366820216179 255 255 0
0.210101932287 -0.0623632520437 -0.568649590015 255 255 0
0.347266286612 -0.0232468508184 0.0266447737813 255 255 0
-0.542654693127 -0.0516552701592 0.366557091475 255 255 0
0.34928509593 -0.0227917339653 0.101462095976 255 255 0
-0.199094340205 -0.033299587667 -0.95334815979 255 255 0
-0.353680610657 -0.0575414262712 0.921470880508 255 255 0
0.181837886572 -0.0463522560894 -1.00039744377 255 255 0
0.136764988303 -0.044843994081 -0.272534132004 255 255 0
0.267423242331 -0.0648093819618 1.00875818729 255 255 0
-0.484053343534 -0.0311724096537 0.178560912609 255 255 0
0.0456833429635 -0.0401514433324 1.0622844696 255 255 0
-0.0963777750731 -0.0396389476955 1.04784750938 255 255 0
-0.180560559034 -0.0289772376418 0.476681917906 255 255 0
-0.34615162015 -0.035441622138 -0.910461068153 255 255 0
-0.531870603561 -0.0435940548778 0.107755504549 255 255 0
0.29887676239 -0.0256708357483 0.162575691938 255 255 0
0.151156842709 -0.0369654223323 -1.03500688076 255 255 0
-0.300706535578 -0.0585337765515 0.351866096258 255 255 0
-0.175666645169 -0.0286539979279 -0.037905793637 255 255 0
-0.305657178164 -0.0586840622127 0.439619570971 255 255 0
-0.0351760163903 -0.0400532335043 -0.972579419613 255 255 0
-0.201269820333 -0.0413271635771 -0.187363252044 255 255 0
-0.482334017754 -0.0310032423586 0.174940779805 255 255 0
-0.218796879053 -0.0591987781227 -0.816467046738 255 255 0
-0.493684113026 -0.0389940030873 -0.583212316036 255 255 0
-0.410541653633 -0.0448364429176 -0.962536692619 255 255 0
-0.042094387114 -0.0530236698687 1.00028777122 255 255 0
0.0408300459385 -0.0281317383051 0.886692404747 255 255 0
-0.486042678356 -0.0479466021061 -1.06625056267 255 255 0
-0.483939141035 -0.0309651568532 0.174078837037 255 255 0
-0.286799520254 -0.0668914094567 -0.31313508749 255 255 0
-0.0444315522909 -0.0235317759216 0.869762539864 255 255 0
0.330644249916 -0.0414659492671 -0.933390676975 255 255 0
-0.1410138309 -0.0285379625857 0.806580364704 255 255 0
-0.478307127953 -0.0359558649361 -0.479356527328 255 255 0
0.118154332042 -0.05224320665 0.98717468977 255 255 0
0.237750887871 -0.070590108633 -0.728448450565 255 255 0
-0.37998265028 -0.0706894174218 0.951507925987 255 255 0
0.20464079082 -0.0526008941233 -0.441554754972 255 255 0
0.327628523111 -0.0264910459518 -0.242088645697 255 255 0
0.498560130596 -0.0547165498137 -0.981175541878 255 255 0
0.145565584302 -0.0392449647188 -0.98581135273 255 255 0
-0.127887070179 -0.0292970649898 0.146371439099 255 255 0
0.141277208924 -0.0437733195722 -0.972540795803 255 255 0
0.376553088427 -0.0495780780911 -0.926005959511 255 255 0
-0.487911224365 -0.0292612854391 -0.032121155411 255 255 0
-0.0448063164949 -0.036605540663 -0.708939015865 255 255 0
-0.242296904325 -0.0250012055039 -0.96469950676 255 255 0
0.374397456646 -0.05356464535 0.937188506126 255 255 0
0.382835179567 -0.0394107922912 1.05420076847 255 255 0
0.289644002914 -0.0504370704293 -0.994083702564 255 255 0
0.0629893690348 -0.0486560165882 0.40054294467 255 255 0
0.080221362412 -0.0225125234574 0.850643634796 255 255 0
0.0352880656719 -0.0282088816166 -0.0425676256418 255 255 0
0.483045250177 -0.0488818362355 -0.938562989235 255 255 0
-0.550172448158 -0.0723282173276 -0.117074482143 255 255 0
0.202792584896 -0.0579562187195 0.0127584813163 255 255 0
0.122198618948 -0.0335123501718 1.08965921402 255 255 0
0.204362824559 -0.0576923936605 -0.585240006447 255 255 0
-0.176075175405 -0.0243227891624 0.206833317876 255 255 0
0.0227571614087 -0.0249996371567 0.818490684032 255 255 0
0.075728289783 -0.039504237473 1.04898738861 255 255 0
0.199203372002 -0.0545508526266 0.362075090408 255 255 0
0.512391924858 -0.0379891507328 -0.242780923843 255 255 0
-0.176753357053 -0.0289694368839 -0.115723654628 255 255 0
0.046013969928 -0.0401022620499 1.06122803688 255 255 0
0.229597300291 -0.0552780032158 0.378526061773 255 255 0
-0.0370431505144 -0.0438578799367 0.971303343773 255 255 0
0.0780576467514 -0.0222979970276 0.84595054388 255 255 0
-0.0362104140222 -0.035757355392 1.04988896847 255 255 0
0.228851988912 -0.0663211047649 -0.651799499989 255 255 0
-0.0237522628158 -0.0310675092041 1.03331637383 255 255 0
0.0619281828403 -0.0522681102157 -0.113645963371 255 255 0
0.0373752936721 -0.041366815567 0.919152140617 255 255 0
-0.345000386238 -0.038498904556 0.678848147392 255 255 0
-0.135250583291 -0.0281323119998 0.544084072113 255 255 0
-0.123187348247 -0.0275389309973 0.785382211208 255 255 0
-0.467154800892 -0.0294707585126 -0.0270993169397 255 255 0
-0.0675235167146 -0.0448147170246 0.906672239304 255 255 0
-0.481977462769 -0.0309058912098 -0.0810116156936 255 255 0
-0.133234024048 -0.0277526397258 0.789770007133 255 255 0
-0.183981314301 -0.0327916555107 -0.963983237743 255 255 0
0.397220432758 -0.0438732542098 1.06648540497 255 255 0
0.263161242008 -0.0634353235364 -0.459582716227 255 255 0
-0.53202021122 -0.0523428171873 -0.718349397182 255 255 0
0.406200289726 -0.0555368550122 0.895996630192 255 255 0
-0.285559803247 -0.0692860335112 -0.430524587631 255 255 0
0.0595380291343 -0.040184430778 0.640234351158 255 255 0
-0.127251148224 -0.0275526046753 0.785582363605 255 255 0
-0.197879359126 -0.0348636098206 -1.00409352779 255 255 0
-0.18039919436 -0.0321967452765 0.715589225292 255 255 0
-0.49925839901 -0.0364070720971 0.206858083606 255 255 0
-0.162394031882 -0.0268106739968 0.599463522434 255 255 0
-0.0244289040565 -0.0394101142883 -1.07086074352 255 255 0
0.0742203965783 -0.0477198921144 0.972877144814 255 255 0
0.190687209368 -0.0334615074098 1.00555455685 255 255 0
0.0621103607118 -0.0461308285594 0.684351742268 255 255 0
0.4960501194 -0.0572521463037 -1.01098465919 255 255 0
0.539344727993 -0.0414241328835 0.339892417192 255 255 0
-0.0996934622526 -0.0388475060463 -1.08480834961 255 255 0
0.455484330654 -0.0270922388881 -0.0568309314549 255 255 0
-0.396457910538 -0.0401909761131 -0.978110551834 255 255 0
0.211578190327 -0.039458218962 -0.895023345947 255 255 0
0.493116974831 -0.0322604440153 -0.113345012069 255 255 0
0.541823923588 -0.0420615486801 0.86145234108 255 255 0
-0.142555162311 -0.0340468399227 -0.428137749434 255 255 0
0.47997045517 -0.059625890106 -1.12923395634 255 255 0
0.0992615893483 -0.0403164178133 1.06711661816 255 255 0
-0.299392998219 -0.0518817901611 -1.06131708622 255 255 0
-0.532442510128 -0.0531016550958 -0.617320656776 255 255 0
-0.475481301546 -0.0324185080826 0.628817677498 255 255 0
-0.385460317135 -0.0361032895744 -0.812451243401 255 255 0
0.140515431762 -0.0263590235263 0.850681006908 255 255 0
0.0637927129865 -0.0559437572956 0.642880260944 255 255 0
-0.111258760095 -0.026122784242 0.162692636251 255 255 0
-0.0656428337097 -0.0313980691135 0.954864382744 255 255 0
0.371991932392 -0.0252244528383 0.154638975859 255 255 0
0.287040859461 -0.0306157432497 -0.153790071607 255 255 0
-0.48172980547 -0.0297671630979 0.0635893121362 255 255 0
-0.484362214804 -0.0323817767203 0.373959422112 255 255 0
-0.47640183568 -0.0292807258666 0.0531887598336 255 255 0
-0.488749086857 -0.0344466306269 0.757009983063 255 255 0
-0.312688261271 -0.0575138218701 0.498749017715 255 255 0
0.4006767869 -0.0289338082075 -0.0182722583413 255 255 0
-0.257411211729 -0.0482966527343 -1.05328917503 255 255 0
-0.521633923054 -0.0379576534033 0.409120291471 255 255 0
0.430160164833 -0.0109357871115 -0.068566635251 255 255 0
-0.170192733407 -0.033226262778 -0.446545511484 255 255 0
0.12233440578 -0.054752536118 -0.227698162198 255 255 0
-0.560112416744 -0.114133372903 -0.905043423176 255 255 0
0.108869552612 -0.0276244152337 0.877317368984 255 255 0
0.254328101873 -0.0409787707031 -0.945730805397 255 255 0
-0.519348204136 -0.0357637070119 0.023226801306 255 255 0
-0.396726936102 -0.0445280000567 0.977329909801 255 255 0
0.142428919673 -0.0458268746734 0.933520972729 255 255 0
-0.553183794022 -0.0783546492457 0.0132612688467 255 255 0
-0.30194824934 -0.0722232758999 -0.705823540688 255 255 0
-0.457870513201 -0.0343608893454 0.248173639178 255 255 0
0.0693442299962 -0.0652082040906 -0.679639697075 255 255 0
-0.283416569233 -0.0643752962351 -0.113647639751 255 255 0
-0.562608122826 -0.115819111466 -0.784006178379 255 255 0
0.334220856428 -0.0244741737843 -0.20095859468 255 255 0
0.191584676504 -0.0622154176235 -0.5722848773 255 255 0
-0.111118450761 -0.0364273823798 -0.968210816383 255 255 0
0.0887780338526 -0.032777108252 0.903725683689 255 255 0
-0.161765292287 -0.0293036773801 0.0610982738435 255 255 0
0.416075736284 -0.0346014797688 1.03553271294 255 255 0
0.484917700291 -0.0514593347907 -0.967362165451 255 255 0
0.154278352857 -0.0455720350146 -0.848693847656 255 255 0
0.542307555676 -0.040857501328 0.835409224033 255 255 0
-0.532952547073 -0.0539473295212 -0.599032998085 255 255 0
0.409275203943 -0.0302399899811 -0.243659257889 255 255 0
0.179404050112 -0.0496588163078 -0.844285607338 255 255 0
-0.364862859249 -0.0540102981031 1.01403307915 255 255 0
-0.49779933691 -0.0441711805761 -1.06360626221 255 255 0
0.161366283894 -0.0426607988775 -0.996141552925 255 255 0
-0.162723883986 -0.0266470685601 0.172825142741 255 255 0
0.0798406898975 -0.0219768900424 0.839044094086 255 255 0
0.107538826764 -0.0350683182478 -0.907850086689 255 255 0
-0.145318031311 -0.0285739582032 0.807257890701 255 255 0
-0.420738607645 -0.0654076486826 -1.10996067524 255 255 0
-0.481483250856 -0.0296767652035 -0.10759716481 255 255 0
0.180908516049 -0.0674253106117 -0.713653147221 255 255 0
0.023766297847 -0.0238271839917 0.877761721611 255 255 0
-0.541016936302 -0.0522524528205 0.464136213064 255 255 0
-0.0409975685179 -0.0495014861226 1.0087146759 255 255 0
0.304040431976 -0.0218443274498 0.164513140917 255 255 0
-0.159726694226 -0.0405248403549 1.06552493572 255 255 0
0.0426051281393 -0.038273409009 -0.840024530888 255 255 0
-0.551980614662 -0.0833494439721 0.290608614683 255 255 0
0.0691268220544 -0.0327630452812 0.902958393097 255 255 0
-0.488918334246 -0.0295299980789 -0.19556632638 255 255 0
0.0743282660842 -0.0500745587051 -1.17623722553 255 255 0
0.391203224659 -0.0127469515428 -0.114910550416 255 255 0
-0.461483508348 -0.0447011962533 1.06417012215 255 255 0
0.100388981402 -0.0441780537367 1.06608760357 255 255 0
-0.540630877018 -0.0530321374536 -0.28054562211 255 255 0
0.515833854675 -0.0352892652154 0.375821560621 255 255 0
0.27565485239 -0.043130248785 -0.137109681964 255 255 0
-0.162546247244 -0.0314780808985 -0.230340227485 255 255 0
-0.163338392973 -0.0255997423083 0.404001682997 255 255 0
-0.286935657263 -0.0239027645439 -0.904902398586 255 255 0
-0.397469520569 -0.0435053557158 -0.991032242775 255 255 0
-0.506621420383 -0.0391679257154 -0.0720452219248 255 255 0
-0.00955572444946 -0.038961481303 -1.08021843433 255 255 0
0.0553685911 -0.0355615280569 0.540100574493 255 255 0
0.194195747375 -0.028616964817 0.900805592537 255 255 0
-0.334685504436 -0.0503171235323 -0.249825969338 255 255 0
-0.483347594738 -0.0406040214002 -0.886601746082 255 255 0
-0.540842354298 -0.0578186735511 -0.346210300922 255 255 0
0.42840719223 -0.0525464527309 0.916428208351 255 255 0
0.0597595833242 -0.0400880724192 0.638154506683 255 255 0
-0.185034349561 -0.0330366007984 0.64903563261 255 255 0
-0.232504948974 -0.0622514523566 1.0262465477 255 255 0
0.195105686784 -0.0274536702782 0.87565433979 255 255 0
-0.548398077488 -0.0680717155337 0.721659183502 255 255 0
-0.29135799408 -0.0634501054883 0.458471417427 255 255 0
-0.162717044353 -0.0258279498667 0.408954530954 255 255 0
0.244918391109 -0.0559304021299 -1.04550278187 255 255 0
0.262286126614 -0.0336632654071 1.0962253809 255 255 0
0.152232095599 -0.0277218129486 0.880446612835 255 255 0
0.145240455866 -0.0616002269089 -0.502070903778 255 255 0
0.541593551636 -0.0428012274206 0.115890353918 255 255 0
-0.201582685113 -0.0437531508505 -0.304110556841 255 255 0
0.201201036572 -0.0583062507212 -0.2335588485 255 255 0
0.538989722729 -0.0419019088149 0.434840798378 255 255 0
0.380202680826 -0.0303915739059 -0.241064056754 255 255 0
-0.50029861927 -0.0351582989097 0.518283486366 255 255 0
-0.0657531991601 -0.0379044525325 1.09565412998 255 255 0
0.207474380732 -0.0617083907127 -0.752118229866 255 255 0
0.0774363055825 -0.0504487119615 -1.1680675745 255 255 0
0.0693919956684 -0.0566215068102 -0.357738733292 255 255 0
0.264478266239 -0.0373315736651 1.09103786945 255 255 0
0.0617861151695 -0.0526718050241 -0.358767956495 255 255 0
-0.0541942939162 -0.0358310714364 1.05106043816 255 255 0
0.409284830093 -0.0287537779659 0.147270992398 255 255 0
0.170836538076 -0.0333252698183 1.08675694466 255 255 0
-0.484465271235 -0.0310016814619 -0.417469680309 255 255 0
-0.320014953613 -0.0710947811604 0.70783829689 255 255 0
0.0822552293539 -0.0573628731072 0.25093331933 255 255 0
-0.373734533787 -0.0340302847326 -0.941651046276 255 255 0
0.434324026108 -0.0388174802065 0.957957029343 255 255 0
0.181622102857 -0.0295154713094 1.08918833733 255 255 0
0.0923158526421 -0.0533139929175 -0.428770363331 255 255 0
0.466684490442 -0.0520574450493 -0.954849183559 255 255 0
0.39154329896 -0.0713602676988 -1.13125002384 255 255 0
-0.0931054502726 -0.0402709953487 0.892365455627 255 255 0
-0.518246412277 -0.0436938367784 -0.90518116951 255 255 0
-0.193590968847 -0.033663328737 -0.860729396343 255 255 0
-0.334119409323 -0.0483705215156 0.638863384724 255 255 0
-0.290111482143 -0.0517365112901 1.05120956898 255 255 0
-0.00608909456059 -0.035620521754 1.04763758183 255 255 0
-0.505958080292 -0.0365503430367 -0.0440537109971 255 255 0
-0.174858957529 -0.0261204577982 0.0765257850289 255 255 0
-0.318435490131 -0.0725805461407 0.655408084393 255 255 0
0.14185975492 -0.0261770617217 0.846775174141 255 255 0
-0.16305051744 -0.0289636924863 0.646037518978 255 255 0
-0.298220336437 -0.0597507879138 0.462877780199 255 255 0
-0.341204285622 -0.046087693423 -1.01844513416 255 255 0
-0.46475726366 -0.0372724942863 -0.53516471386 255 255 0
0.372669398785 -0.0703211799264 -1.06956148148 255 255 0
0.275422990322 -0.0302993953228 0.854507505894 255 255 0
-0.321454316378 -0.0686113908887 -0.361350804567 255 255 0
0.0840229541063 -0.0523849092424 0.989436924458 255 255 0
0.0507595911622 -0.0278712306172 0.881289184093 255 255 0
-0.231413900852 -0.0264877844602 -0.932274878025 255 255 0
-0.111779771745 -0.0276048406959 0.533222973347 255 255 0
0.353080302477 -0.0602005571127 0.911045432091 255 255 0
-0.337952882051 -0.0402934774756 0.633229136467 255 255 0
-0.478284686804 -0.0358216501772 0.702392578125 255 255 0
-0.146729528904 -0.0487706027925 0.99040800333 255 255 0
0.143464669585 -0.0296747032553 0.837880790234 255 255 0
-0.127213656902 -0.0697904899716 0.938011229038 255 255 0
-0.539556443691 -0.0539939664304 -0.344325184822 255 255 0
0.165549889207 -0.0429661124945 -0.989436209202 255 255 0
-0.301631778479 -0.0273916553706 -0.914370238781 255 255 0
0.488684803247 -0.0326706878841 -0.104572154582 255 255 0
-0.543140351772 -0.0560381263494 0.46138677001 255 255 0
0.0995135679841 -0.0586957074702 1.04174387455 255 255 0
-0.227982014418 -0.0639566779137 -0.713726699352 255 255 0
-0.00677748676389 -0.0322590693831 0.890264511108 255 255 0
-0.248458072543 -0.0727985575795 0.74639236927 255 255 0
-0.0114096459001 -0.0490306280553 0.999222874641 255 255 0
0.178127035499 -0.0578171350062 0.0937857031822 255 255 0
0.21390876174 -0.0552718266845 0.378022789955 255 255 0
0.403899937868 -0.0642426237464 -0.946506023407 255 255 0
0.446247696877 -0.0410265214741 0.921421647072 255 255 0
0.445177674294 -0.0751501023769 -1.1325956583 255 255 0
-0.340238124132 -0.0402618013322 0.632489860058 255 255 0
-0.547624289989 -0.0639437362552 -0.129211068153 255 255 0
-0.288948893547 -0.0635275766253 -0.132121965289 255 255 0
-0.519421219826 -0.0459829904139 1.09054207802 255 255 0
0.52399200201 -0.0372417829931 0.756736814976 255 255 0
0.0690198093653 -0.0609935261309 -0.516995072365 255 255 0
0.0828874632716 -0.0710656493902 0.547464132309 255 255 0
-0.554541826248 -0.0858929827809 0.260970175266 255 255 0
0.117682054639 -0.0685819163918 -1.11320507526 255 255 0
-0.349803745747 -0.0434032715857 -0.653645992279 255 255 0
0.0899232327938 -0.0518705286086 0.216882541776 255 255 0
0.524619102478 -0.0373820960522 0.421315580606 255 255 0
0.426773399115 -0.0340216942132 1.02323865891 255 255 0
0.0833217725158 -0.0469180457294 -1.15971136093 255 255 0
0.231436148286 -0.0320564582944 0.806874394417 255 255 0
-0.104569144547 -0.0388478375971 -1.16953408718 255 255 0
-0.178402096033 -0.0271162800491 0.436463266611 255 255 0
0.17819903791 -0.0288444440812 0.820733070374 255 255 0
-0.402249276638 -0.0600650198758 0.890316903591 255 255 0
0.328944385052 -0.0342437326908 0.85650241375 255 255 0
0.204070881009 -0.059000801295 -0.387697905302 255 255 0
0.36874371767 -0.0392443239689 1.05026650429 255 255 0
0.330848693848 -0.0714966952801 -1.12972784042 255 255 0
0.172778308392 -0.0675457715988 -0.71123790741 255 255 0
0.303782761097 -0.0410382077098 -0.943279504776 255 255 0
0.12457998842 -0.040035136044 -0.969207108021 255 255 0
-0.338150054216 -0.0518959015608 1.05352675915 255 255 0
-0.118192136288 -0.0256588626653 0.660198867321 255 255 0
-0.202439248562 -0.0317521318793 -0.902294397354 255 255 0
0.00984316505492 -0.0401806756854 -1.05337905884 255 255 0
0.213356822729 -0.0699083432555 -0.828394114971 255 255 0
0.307027161121 -0.0289183799177 0.740750133991 255 255 0
-0.184209451079 -0.0337930321693 -0.942319691181 255 255 0
-0.166024848819 -0.0273522417992 0.695715129375 255 255 0
-0.345775067806 -0.0511320829391 -0.655542612076 255 255 0
-0.301937133074 -0.058957580477 0.107153646648 255 255 0
-0.497917860746 -0.0332947261631 0.393395483494 255 255 0
0.522322356701 -0.0404401011765 0.99514234066 255 255 0
0.157587245107 -0.0660770013928 0.441274166107 255 255 0
-0.308180898428 -0.0689415335655 -0.269276022911 255 255 0
-0.0266433153301 -0.0404728762805 1.06753599644 255 255 0
-0.511650145054 -0.0433888360858 -0.150063082576 255 255 0
0.402092009783 -0.0244673676789 -0.0302706696093 255 255 0
0.0400073118508 -0.0355479232967 1.04715275764 255 255 0
-0.282590657473 -0.0251347497106 -0.962759077549 255 255 0
-0.136477828026 -0.0257524121553 0.577174246311 255 255 0
-0.102407298982 -0.0574783161283 0.926025271416 255 255 0
-0.174375265837 -0.0320073328912 -0.8961109519 255 255 0
0.21360167861 -0.0399354360998 1.06156647205 255 255 0
0.144634336233 -0.0569905824959 -0.347979545593 255 255 0
0.276996612549 -0.0300962012261 0.850147664547 255 255 0
-0.499000161886 -0.0449419058859 -0.962338626385 255 255 0
0.125003919005 -0.0287790577859 0.902682960033 255 255 0
-0.374399811029 -0.0378687866032 -0.943222999573 255 255 0
-0.145427659154 -0.0305257160217 -0.165927171707 255 255 0
0.304454475641 -0.0221988949925 0.341431587934 255 255 0
-0.340364426374 -0.0355602279305 0.361512839794 255 255 0
0.157966420054 -0.0455844961107 -0.848337292671 255 255 0
0.339840769768 -0.0413233079016 -0.936260700226 255 255 0
0.129761248827 -0.0475504659116 1.05513751507 255 255 0
-0.506400287151 -0.0362943932414 0.204251512885 255 255 0
0.435566157103 -0.08653190732 -1.05576598644 255 255 0
0.0393030121922 -0.0275717955083 0.78992164135 255 255 0
-0.16231136024 -0.0267814733088 0.0911251977086 255 255 0
0.0367202870548 -0.0340702608228 1.09971809387 255 255 0
-0.473897874355 -0.0307403262705 0.423304468393 255 255 0
-0.48064237833 -0.0326446667314 0.210499644279 255 255 0
-0.159007385373 -0.0297260098159 -0.0989339798689 255 255 0
0.118019960821 -0.0655047744513 1.02028608322 255 255 0
-0.308587104082 -0.0258625540882 -0.947622478008 255 255 0
-0.341217011213 -0.0330509729683 -0.962076365948 255 255 0
-0.349240541458 -0.0343602709472 -0.933933317661 255 255 0
0.162211194634 -0.0396390631795 1.05394244194 255 255 0
0.0794365555048 -0.0692929029465 0.593640267849 255 255 0
-0.051391530782 -0.0363962836564 0.89412099123 255 255 0
-0.479045331478 -0.028244568035 -0.138531193137 255 255 0
-0.0134892212227 -0.0441922023892 1.06371068954 255 255 0
-0.516427516937 -0.0419764108956 0.242351055145 255 255 0
0.451237231493 -0.0486011728644 -0.945385754108 255 255 0
-0.214185476303 -0.0560196749866 -0.12358879298 255 255 0
0.539659619331 -0.0428436733782 0.370617508888 255 255 0
0.468718796968 -0.0409263856709 1.08902037144 255 255 0
-0.368948817253 -0.0571821965277 0.913337767124 255 255 0
0.377210050821 -0.0520651713014 0.98942553997 255 255 0
-0.329077422619 -0.0695532411337 -0.679621934891 255 255 0
0.303394258022 -0.0241989642382 0.300068259239 255 255 0
0.331252872944 -0.042477786541 -0.911481082439 255 255 0
0.195880144835 -0.0279864389449 0.887201249599 255 255 0
0.16942858696 -0.0361308567226 1.06281602383 255 255 0
-0.390718728304 -0.0478995516896 1.05042886734 255 255 0
-0.398778617382 -0.0434257686138 -0.992785334587 255 255 0
-0.328927785158 -0.0381783470511 1.09538066387 255 255 0
-0.509445309639 -0.0341825708747 0.15848185122 255 255 0
-0.337776005268 -0.0400942079723 0.628921210766 255 255 0
0.498778909445 -0.0357665754855 -0.291196256876 255 255 0
-0.517321050167 -0.0375157520175 0.145805329084 255 255 0
0.202532023191 -0.0329622738063 1.07964873314 255 255 0
