ply
format ascii 1.0
comment https://github.com/EricCJoyce
element vertex 182
property float x
property float y
property float z
property uchar red
property uchar green
property uchar blue
end_header
-0.0784180834889 -0.0087209045887 -0.360728144646 255 0 0
-0.337874621153 -0.0024180947803 -0.0592575855553 255 0 0
0.157546773553 -0.00525502441451 -0.118982352316 255 0 0
-0.0157053172588 -0.00196444429457 0.130396693945 255 0 0
-0.0439635328948 -0.000793215178419 0.130095094442 255 0 0
0.217373386025 -0.00451016891748 -0.0982486605644 255 0 0
-0.0383209362626 -0.0091089848429 -0.370263427496 255 0 0
0.216256022453 -0.00475181546062 -0.0936424434185 255 0 0
0.278465211391 -0.00429770862684 -0.0650575086474 255 0 0
0.159423977137 -0.00441483827308 -0.0933547988534 255 0 0
0.172157406807 -0.00421235477552 -0.0899055153131 255 0 0
0.260939270258 -0.00439356220886 -0.116700939834 255 0 0
0.279473185539 -0.00401907972991 -0.0705423802137 255 0 0
0.438228011131 -0.00138930021785 0.18458737433 255 0 0
0.245420768857 -0.00295620062388 -0.0720580667257 255 0 0
-0.0165805071592 -0.0017848405987 0.12591637671 255 0 0
0.277323365211 -0.0036983625032 -0.0789065361023 255 0 0
0.213692829013 -0.00543924607337 -0.123044393957 255 0 0
0.28243175149 -0.00193481438328 0.100024424493 255 0 0
0.197549447417 -0.00503177614883 -0.0990936011076 255 0 0
-0.322349429131 -0.00376025983132 -0.0630967244506 255 0 0
0.508455693722 -0.00984222814441 0.113232500851 255 0 0
-0.305701434612 -0.0033183763735 -0.0624713897705 255 0 0
0.274739742279 -0.00407352438197 -0.0722812190652 255 0 0
-0.010042373091 -0.00204878230579 0.135754436255 255 0 0
0.268702685833 -0.00380323617719 -0.0819479897618 255 0 0
0.261935681105 -0.00348078925163 -0.0932106673717 255 0 0
-0.0235996153206 -0.000478782952996 0.135817214847 255 0 0
0.197963312268 -0.00573407765478 -0.126325041056 255 0 0
0.202009320259 -0.00391680980101 -0.07789093256 255 0 0
0.160260036588 -0.00469392351806 -0.0867174342275 255 0 0
0.269739001989 -0.00419150805101 -0.0727924630046 255 0 0
-0.198019057512 0.00899955444038 -0.265846371651 255 0 0
0.454964995384 -0.00301209813915 0.31631308794 255 0 0
-0.0919261425734 -0.00771400611848 -0.348288029432 255 0 0
0.200036928058 -0.00369446864352 -0.0839881151915 255 0 0
0.208918169141 -0.00373354484327 -0.077628903091 255 0 0
0.203768566251 -0.00337169435807 -0.0887535065413 255 0 0
0.206869646907 -0.0044371066615 -0.106358297169 255 0 0
0.529272437096 0.0112456250936 0.135501384735 255 0 0
0.166452199221 -0.00414361385629 -0.0949474573135 255 0 0
0.506227076054 -0.0171160027385 -0.414850056171 255 0 0
0.461779713631 -0.00185267697088 0.337999939919 255 0 0
0.257166177034 -0.00470415502787 -0.112228341401 255 0 0
-0.0717735737562 -0.00286906422116 -0.313374608755 255 0 0
0.166290730238 -0.00468788575381 -0.083113476634 255 0 0
0.210779622197 -0.00520340213552 -0.0871336236596 255 0 0
0.517650008202 -0.00873869284987 -0.377024024725 255 0 0
0.243185520172 -0.00440320977941 -0.127488806844 255 0 0
0.44651427865 -0.00415191007778 0.207408815622 255 0 0
-0.0201798900962 -0.00205092644319 0.129520714283 255 0 0
0.250301152468 -0.00434670923278 -0.0814322382212 255 0 0
0.459783941507 -0.00272061792202 0.312907516956 255 0 0
0.43462562561 0.00137888581958 0.207432493567 255 0 0
0.454779624939 -2.17148335651e-05 0.336403220892 255 0 0
0.122262507677 0.00206953426823 -0.0870107114315 255 0 0
0.252287685871 -0.00465027941391 -0.116432130337 255 0 0
0.445622414351 -0.00431636814028 0.167575314641 255 0 0
0.51396048069 -0.00728168804199 0.317820668221 255 0 0
-0.0376512296498 -0.00813912786543 -0.348227232695 255 0 0
0.248384237289 -0.00457382947206 -0.120526827872 255 0 0
0.291139423847 0.000765410077292 0.13198646903 255 0 0
0.201001614332 -0.00458260811865 -0.106803506613 255 0 0
0.204316675663 -0.00465107942 -0.103248305619 255 0 0
0.508087456226 -0.0106299454346 0.130276292562 255 0 0
-0.0742350295186 -0.00902988854796 -0.394248455763 255 0 0
-0.22030825913 0.0103172250092 -0.265660792589 255 0 0
-0.0269365888089 -0.00191735196859 0.122405745089 255 0 0
0.526670575142 -0.00608921144158 0.170887574553 255 0 0
-0.149528369308 0.0214282535017 -0.208114087582 255 0 0
0.273882061243 -0.00362948700786 -0.0825488120317 255 0 0
0.248268991709 -0.00338166370057 -0.103851422668 255 0 0
0.506785571575 -0.011093210429 0.0967406108975 255 0 0
0.301442593336 -0.000168793369085 0.115966796875 255 0 0
-0.00201236223802 0.0142520451918 -0.17380489409 255 0 0
0.251736223698 -0.00487490929663 -0.111848436296 255 0 0
0.200455218554 -0.00588078191504 -0.12156444788 255 0 0
0.459790855646 -0.00220101629384 0.301518708467 255 0 0
0.192071646452 -0.00390199385583 -0.0843727216125 255 0 0
0.256696015596 -0.00324598001316 -0.10160548985 255 0 0
0.439854800701 -0.00342232920229 0.144398778677 255 0 0
0.254265844822 -0.00500563532114 -0.107414826751 255 0 0
0.203721299767 -0.00429513771087 -0.111421763897 255 0 0
-0.0281727351248 -0.00225177034736 0.128972545266 255 0 0
0.226244211197 -0.00399227114394 -0.104108422995 255 0 0
-0.295955389738 -0.00283114123158 -0.0671165809035 255 0 0
0.245197698474 -0.00366818765178 -0.0994717553258 255 0 0
0.207913771272 -0.004701691214 -0.0999099686742 255 0 0
0.443526059389 -0.00264720967971 0.215451449156 255 0 0
0.511713027954 -0.00860957242548 0.302657306194 255 0 0
0.454812854528 -0.00208917283453 0.295982211828 255 0 0
0.418373256922 -0.00187879335135 0.183019176126 255 0 0
-0.0948291569948 -0.00915619824082 -0.361351191998 255 0 0
0.45697286725 -0.00494152400643 0.145428150892 255 0 0
0.527756929398 -0.00185923685785 0.121698714793 255 0 0
0.25019595027 -0.00432186340913 -0.124929122627 255 0 0
-0.0359747037292 -0.0096662659198 -0.356590539217 255 0 0
0.274557709694 -0.00114799896255 0.120780795813 255 0 0
-0.0982752889395 -0.00862311758101 -0.375174880028 255 0 0
0.260003477335 -0.00324858771637 -0.0994991734624 255 0 0
0.438799858093 -0.00238420045935 0.163869485259 255 0 0
0.156717017293 -0.0047589908354 -0.130372732878 255 0 0
0.454046815634 -0.0015152086271 0.282922565937 255 0 0
0.0126433381811 0.0074204406701 -0.143591985106 255 0 0
-0.061963159591 -0.00757001992315 -0.375768363476 255 0 0
-0.00612331228331 0.0162974204868 -0.178312987089 255 0 0
0.454182744026 -0.00300047453493 0.229799717665 255 0 0
0.501580834389 -0.0201561730355 -0.393955081701 255 0 0
0.243923678994 -0.00459211412817 -0.122889459133 255 0 0
0.457573890686 -0.00558204483241 0.15984493494 255 0 0
0.248088091612 -0.00511270388961 -0.108894638717 255 0 0
0.456123888493 -0.00796307623386 0.0396067611873 255 0 0
-0.0865050703287 -0.0082915276289 -0.375153243542 255 0 0
0.454258739948 -0.0109168095514 -0.111218161881 255 0 0
0.456964820623 -0.00726766698062 0.110653668642 255 0 0
0.484007656574 -0.00900372955948 0.165474057198 255 0 0
-0.0559515058994 -0.00118838902563 0.131332695484 255 0 0
0.211429640651 -0.00399764673784 -0.113168977201 255 0 0
0.509964466095 -0.00928916130215 0.230701163411 255 0 0
0.458094984293 -0.00387599109672 0.208533704281 255 0 0
-0.274665772915 -0.00232249987312 -0.0650792717934 255 0 0
-0.0263344533741 -0.00139087077696 0.154121801257 255 0 0
0.456177383661 -0.00909302849323 0.0215289443731 255 0 0
0.510522007942 -0.00971248373389 0.283215522766 255 0 0
0.454412609339 -0.0087612438947 -0.0726131573319 255 0 0
0.206035912037 -0.00359329511411 -0.082489810884 255 0 0
0.260126441717 -0.00391307659447 -0.0848530232906 255 0 0
-0.0560191906989 -0.00792059581727 -0.36439883709 255 0 0
0.453781813383 -0.0109201446176 -0.154327452183 255 0 0
0.301522552967 0.00035422941437 0.147435173392 255 0 0
-0.0385705381632 -0.00182415579911 0.113154411316 255 0 0
-0.313977509737 -0.00295109930448 -0.0327650643885 255 0 0
-0.0436224006116 -0.00954601168633 -0.36396548152 255 0 0
0.508915781975 -0.00949436519295 0.148777037859 255 0 0
0.204105719924 -0.00509658828378 -0.0936105325818 255 0 0
0.256878435612 -0.00340483640321 -0.0551223754883 255 0 0
0.177216038108 -0.00597061682492 -0.133992612362 255 0 0
-0.259400159121 0.00179926888086 -0.0602238178253 255 0 0
0.458659231663 -0.00309870974161 0.234727114439 255 0 0
-0.00274505629204 -0.00145556463394 0.12726829946 255 0 0
0.456569820642 -0.00678289169446 0.056892555207 255 0 0
0.257848978043 -0.00303575163707 -0.0626138299704 255 0 0
0.455661386251 -0.00820755120367 0.00179379922338 255 0 0
0.258939564228 -0.0043226974085 -0.119493700564 255 0 0
0.454138487577 -0.011811427772 -0.177450597286 255 0 0
0.446710973978 -0.00415573082864 0.164727509022 255 0 0
0.509248435497 -0.00962784234434 0.194796770811 255 0 0
0.215111404657 -0.0046475045383 -0.0966387763619 255 0 0
0.520417928696 -0.012307590805 -0.339942365885 255 0 0
0.45928093791 -0.00201213988476 0.254174441099 255 0 0
0.452076017857 -0.0060001090169 0.122718498111 255 0 0
0.301180303097 0.00259271683171 0.14102768898 255 0 0
0.192152202129 -0.00523285381496 -0.0980285406113 255 0 0
0.300394833088 -0.00194520573132 0.0684944614768 255 0 0
0.443185091019 -0.0027675665915 0.217879205942 255 0 0
-0.341735988855 -0.00319577311166 -0.0445980913937 255 0 0
0.220825344324 -0.00586661789566 -0.152141556144 255 0 0
0.280837327242 0.00222576013766 0.136470213532 255 0 0
0.294864624739 0.002295905957 0.14362283051 255 0 0
0.469977915287 -0.00577461719513 0.343300044537 255 0 0
0.454415082932 -0.00260109617375 0.264073580503 255 0 0
0.509105324745 -0.0109254615381 0.180273488164 255 0 0
0.4471116364 -0.00928861275315 -0.23712079227 255 0 0
0.45946380496 -0.00350304390304 0.244091242552 255 0 0
0.186371058226 -0.00384960626252 -0.0890532284975 255 0 0
-0.45783752203 -0.00173722021282 0.237471982837 255 0 0
-0.0167791955173 -0.000616199686192 0.143055915833 255 0 0
0.212513417006 -0.00380802387372 -0.116655312479 255 0 0
0.238529384136 -0.0045047737658 -0.0852596759796 255 0 0
0.163194641471 -0.00491870660335 -0.0799705609679 255 0 0
0.299722015858 -0.00406323326752 -0.0141420736909 255 0 0
0.160552680492 -0.00543410517275 -0.113193400204 255 0 0
0.202774778008 -0.00514707155526 -0.0933281928301 255 0 0
0.446250885725 -0.0114916041493 -0.275123864412 255 0 0
-0.0367070436478 -0.00852220691741 -0.382129579782 255 0 0
-0.0337012782693 -0.000734988716431 0.135176405311 255 0 0
0.256245821714 -0.00431884778664 -0.121247030795 255 0 0
0.449385970831 -0.0062935478054 -0.0011747846147 255 0 0
0.451815932989 -0.0116225825623 -0.268804103136 255 0 0
0.271978408098 -0.00342446984723 -0.0882235467434 255 0 0
0.484402447939 -0.00828341487795 0.19281154871 255 0 0
-0.0744623765349 -0.00918608624488 -0.348077535629 255 0 0
