ply
format ascii 1.0
comment https://github.com/EricCJoyce
element vertex 139
property float x
property float y
property float z
property uchar red
property uchar green
property uchar blue
end_header
0.105643361807 0.0377723500133 0.232060045004 255 0 0
0.0618691965938 0.0369987413287 0.228825554252 255 0 0
-0.0439256280661 0.0416892915964 -0.212553992867 255 0 0
0.097598053515 0.039939891547 0.158353701234 255 0 0
-0.0846542939544 0.0433419719338 0.159202337265 255 0 0
0.100092664361 0.0384211912751 0.245891854167 255 0 0
-0.0880118831992 0.0430634617805 0.138519987464 255 0 0
0.123964495957 0.0383536703885 0.230392098427 255 0 0
0.010668403469 0.169932886958 0.173082053661 255 0 0
0.0951338931918 0.0381818190217 0.235802903771 255 0 0
0.137790992856 0.0387870632112 0.229195713997 255 0 0
0.0903026685119 0.0413495190442 0.174271374941 255 0 0
0.0971867591143 0.0373686589301 0.222915306687 255 0 0
0.0993813574314 0.0412397794425 0.120597682893 255 0 0
0.0117802554742 0.200251102448 0.0937383696437 255 0 0
0.110415585339 0.0382262505591 0.239579498768 255 0 0
-0.0657962784171 0.198501721025 0.149960592389 255 0 0
0.00801041349769 0.0396045185626 -0.10446882993 255 0 0
0.117869019508 0.0378711745143 0.245841905475 255 0 0
0.1362747401 0.0380408763885 0.237524375319 255 0 0
0.096408508718 0.0379940457642 0.238364517689 255 0 0
-0.0702935904264 0.0410530343652 0.190097555518 255 0 0
0.115565367043 0.0384656377137 0.238219097257 255 0 0
0.0929402112961 0.0439828932285 0.155618444085 255 0 0
0.114456355572 0.0385038517416 0.225955888629 255 0 0
0.0408214181662 0.199529230595 0.0758671909571 255 0 0
0.12350807339 0.0382094271481 0.24345909059 255 0 0
-0.0663665533066 0.198135897517 0.142589524388 255 0 0
0.0258554089814 0.201612368226 0.104731082916 255 0 0
0.0896017700434 0.0400677844882 0.17761002481 255 0 0
-0.0239057317376 0.19959962368 0.0798428952694 255 0 0
0.0467699840665 0.200219348073 0.103951819241 255 0 0
-0.0716954767704 0.196449950337 0.149369195104 255 0 0
0.0232768058777 0.199774563313 0.0680542513728 255 0 0
-0.0468054823577 0.19602099061 0.172905430198 255 0 0
-0.00660656346008 0.198362752795 0.202746793628 255 0 0
0.141660064459 0.0385464243591 0.233107313514 255 0 0
0.0682121366262 0.0374580584466 0.236723214388 255 0 0
-0.0691112577915 0.197460591793 0.149741023779 255 0 0
-0.0319780670106 0.197950303555 0.1889475137 255 0 0
-0.0287519264966 0.198828577995 0.191052854061 255 0 0
0.0351373441517 0.218544557691 0.0927212610841 255 0 0
-0.0267985034734 0.207383424044 0.102730378509 255 0 0
0.0934060737491 0.0377785600722 0.228545501828 255 0 0
-0.0201021526009 0.19928753376 0.199603587389 255 0 0
0.117984138429 0.0382280834019 0.241686597466 255 0 0
-0.0477329008281 0.17170470953 0.170376777649 255 0 0
0.0824305266142 0.0373589172959 0.23038238287 255 0 0
0.0360479429364 0.217601254582 0.104045204818 255 0 0
0.127934321761 0.0381848216057 0.221986800432 255 0 0
0.139993324876 0.0390143655241 0.22714817524 255 0 0
-0.100612387061 0.0368413627148 0.161968946457 255 0 0
0.103052780032 0.0388942174613 0.137648060918 255 0 0
0.130268439651 0.0382080450654 0.222370803356 255 0 0
-0.0399835593998 0.198331952095 0.182218044996 255 0 0
0.115787424147 0.0379216335714 0.233161464334 255 0 0
-0.0867896303535 0.0414279475808 0.158053383231 255 0 0
-0.0164424721152 0.198636084795 0.196773424745 255 0 0
0.0761661157012 0.0377074219286 0.22453148663 255 0 0
0.00395828997716 0.199760466814 0.062786385417 255 0 0
0.038851082325 0.215599179268 0.105318322778 255 0 0
0.0656571760774 0.0376397967339 0.233872279525 255 0 0
-0.0522277653217 0.0458451621234 -0.206135571003 255 0 0
0.0196930542588 0.17322537303 0.136989250779 255 0 0
0.0216961111873 0.173545464873 0.122294001281 255 0 0
-0.0245293248445 0.171739757061 0.153485700488 255 0 0
-0.012311805971 0.202469676733 0.106943637133 255 0 0
0.0931325778365 0.0373187921941 0.245366021991 255 0 0
-0.0414240658283 0.171221926808 0.177815720439 255 0 0
0.0257740225643 0.198713719845 0.196232780814 255 0 0
-0.0096005005762 0.19864295423 0.118096590042 255 0 0
0.0464711040258 0.199763983488 0.189730897546 255 0 0
-0.0403838083148 0.203081801534 0.114872127771 255 0 0
-0.0592438094318 0.0440445095301 0.0660826563835 255 0 0
0.104851014912 0.0385535620153 0.176659494638 255 0 0
0.137494832277 0.0381869710982 0.2246504426 255 0 0
0.149944797158 0.0386018939316 0.234786555171 255 0 0
-0.0830050334334 0.0445116870105 0.157444730401 255 0 0
0.065691947937 0.174119383097 0.127933785319 255 0 0
-0.0240876488388 0.197646573186 0.125712886453 255 0 0
0.0536889322102 0.0376562662423 0.230313017964 255 0 0
0.0665812045336 0.174231186509 0.138374969363 255 0 0
0.104098506272 0.0377013385296 0.243961662054 255 0 0
0.0586238652468 0.0374678149819 0.245414987206 255 0 0
-0.0495051406324 0.19835087657 0.0987977534533 255 0 0
0.113076746464 0.0384157150984 0.238104909658 255 0 0
0.0425164699554 0.202197059989 0.102556534111 255 0 0
0.0781687572598 0.0370465628803 0.232848644257 255 0 0
0.0400525704026 0.202718213201 0.107251793146 255 0 0
-0.0341060012579 0.173160165548 0.145629376173 255 0 0
-0.142221644521 0.0363603830338 0.167412802577 255 0 0
-0.0645666271448 0.0508482158184 -0.210792511702 255 0 0
-0.0320784263313 0.170710816979 0.186441019177 255 0 0
-0.055776130408 0.055730573833 -0.219593718648 255 0 0
0.111039504409 0.0388228818774 0.244257554412 255 0 0
0.149146258831 0.0389038510621 0.219516158104 255 0 0
0.0220274142921 0.191454529762 0.211334317923 255 0 0
0.0682872459292 0.200125381351 0.122608810663 255 0 0
0.0632520541549 0.194344192743 0.120006360114 255 0 0
0.111272625625 0.0380885712802 0.241435930133 255 0 0
0.146779626608 0.0388518571854 0.219460591674 255 0 0
-0.0576979853213 0.050715342164 -0.207301720977 255 0 0
-0.0322799161077 0.19841067493 0.194963857532 255 0 0
0.0792021676898 0.0373990759254 0.229003235698 255 0 0
0.1332244277 0.0385216511786 0.219522595406 255 0 0
0.0275106858462 0.0392480306327 -0.232836812735 255 0 0
0.0761971920729 0.197564557195 0.154879853129 255 0 0
0.0277216378599 0.0401269569993 -0.231587097049 255 0 0
0.119119510055 0.0381728187203 0.219648510218 255 0 0
-0.0730137079954 0.0464824214578 0.0911202579737 255 0 0
0.0882692337036 0.0464402586222 0.102466419339 255 0 0
-0.0321117080748 0.190680846572 0.205185547471 255 0 0
0.084231197834 0.0415939837694 0.077672123909 255 0 0
0.127930313349 0.0379834696651 0.224348187447 255 0 0
-0.038301486522 0.171808749437 0.160305693746 255 0 0
-0.034285645932 0.0398917384446 -0.223260700703 255 0 0
0.0108454916626 0.173467189074 0.143166601658 255 0 0
0.0402608625591 0.212882608175 0.103079892695 255 0 0
0.0797727406025 0.037909347564 0.234679579735 255 0 0
0.0701534301043 0.0374996997416 0.225277662277 255 0 0
-0.0032718766015 0.0390864871442 0.0249683000147 255 0 0
-0.0666154548526 0.198330909014 0.140231400728 255 0 0
0.0970633551478 0.0389940626919 0.169300809503 255 0 0
0.0788213387132 0.037223175168 0.219457075 255 0 0
0.136276230216 0.0387503653765 0.229200303555 255 0 0
0.0699244886637 0.0371039658785 0.229856476188 255 0 0
0.0594467781484 0.173890843987 0.117355890572 255 0 0
0.0879131779075 0.0373610369861 0.231899470091 255 0 0
0.0897514373064 0.0440125018358 0.165877133608 255 0 0
0.0938026756048 0.0425312668085 0.161390155554 255 0 0
0.0432979017496 0.0500699579716 0.0587337426841 255 0 0
-0.139862060547 0.0382250584662 -0.0263457950205 255 0 0
0.0163938738406 0.173477262259 0.133105829358 255 0 0
0.0622229240835 0.0372240953147 0.237783864141 255 0 0
0.134194031358 0.0387108661234 0.240581035614 255 0 0
-0.0743247866631 0.189703166485 0.158772945404 255 0 0
0.0967694073915 0.037276789546 0.223875850439 255 0 0
0.108532346785 0.0386557132006 0.245513826609 255 0 0
0.13122600317 0.0381614677608 0.234689503908 255 0 0
