ply
format ascii 1.0
comment https://github.com/EricCJoyce
element vertex 215
property float x
property float y
property float z
property uchar red
property uchar green
property uchar blue
end_header
0.119203992188 0.249822676182 0.734888911247 255 0 0
-0.124934658408 -0.122399948537 0.367307960987 255 0 0
-0.135722503066 0.370980888605 0.549790501595 255 0 0
0.111588723958 0.250453978777 0.725256860256 255 0 0
-0.133358553052 0.371540337801 0.550014138222 255 0 0
-0.129023909569 0.212176829576 0.400009155273 255 0 0
0.120913162827 -0.218321949244 0.548587977886 255 0 0
-0.127814024687 0.210383817554 0.366434812546 255 0 0
0.0979403108358 0.391348153353 0.54674321413 255 0 0
0.0978728309274 0.387490093708 0.546341121197 255 0 0
-0.127106845379 0.21299380064 0.400905221701 255 0 0
-0.0669267401099 0.108163334429 0.47404435277 255 0 0
-0.125833854079 -0.120258659124 0.398089259863 255 0 0
-0.0800512954593 0.426951438189 0.549013495445 255 0 0
0.118795536458 0.445166885853 0.740805029869 255 0 0
0.1214915663 0.242203354836 0.731691479683 255 0 0
-0.0886937826872 0.399170309305 0.486939162016 255 0 0
0.113113284111 0.237157255411 0.689259290695 255 0 0
-0.127417117357 -0.233471736312 0.523220896721 255 0 0
0.113656111062 0.24418592453 0.701463103294 255 0 0
0.217739924788 0.273672580719 0.663256764412 255 0 0
-0.0735119283199 0.413030713797 0.500651180744 255 0 0
-0.0859284102917 -0.223856002092 0.475505501032 255 0 0
0.127820849419 0.235780790448 0.710258543491 255 0 0
-0.0840391367674 0.422619432211 0.547203421593 255 0 0
-0.103076554835 0.399136960506 0.545915067196 255 0 0
-0.0770496577024 0.432096511126 0.548757135868 255 0 0
-0.0645561739802 0.419111341238 0.596923530102 255 0 0
-0.0701128616929 0.420990586281 0.499755829573 255 0 0
-0.0809013471007 0.421040862799 0.571267724037 255 0 0
-0.019384495914 0.447673410177 0.543863832951 255 0 0
-0.113534003496 0.362883806229 0.522246778011 255 0 0
-0.137051194906 -0.212448388338 0.545248985291 255 0 0
-0.0840545669198 0.417580544949 0.572391271591 255 0 0
-0.0964356511831 -0.17434066534 0.426580786705 255 0 0
0.0715864002705 -0.101950310171 0.457696199417 255 0 0
-0.0177374389023 -0.354193776846 0.344020277262 255 0 0
-0.2789311409 -0.279426038265 -0.492355257273 255 0 0
0.0713873431087 -0.223824098706 0.520186364651 255 0 0
0.0552380718291 -0.187605857849 0.554047703743 255 0 0
0.241085991263 -0.228360742331 -0.609829723835 255 0 0
-0.0688347071409 0.415794700384 0.598114490509 255 0 0
0.112730480731 -0.124247275293 0.372593581676 255 0 0
0.0885611772537 0.357344537973 0.473534882069 255 0 0
-0.64269310236 -0.389125645161 -0.625204801559 255 0 0
-0.0189201422036 0.446399629116 0.542833566666 255 0 0
-0.104803830385 0.391946822405 0.537351131439 255 0 0
-0.46233856678 -0.235483720899 -0.571934342384 255 0 0
0.121001243591 0.233162909746 0.690484404564 255 0 0
-0.0614307709038 0.441376686096 0.559670090675 255 0 0
-0.112945444882 0.373428076506 0.577809214592 255 0 0
-0.110132947564 0.370068520308 0.585558712482 255 0 0
-0.0701001733541 -0.0201745778322 0.471962362528 255 0 0
-0.140843763947 0.212986126542 0.423062801361 255 0 0
0.127078235149 0.229385301471 0.688577234745 255 0 0
0.128061190248 -0.274874806404 0.267426013947 255 0 0
0.222955808043 -0.225746929646 -0.6083958745 255 0 0
-0.0626060813665 0.439792722464 0.559675931931 255 0 0
-0.11433365196 -0.229639261961 0.523705422878 255 0 0
0.0701823160052 -0.198465630412 0.555007696152 255 0 0
-0.515797734261 -0.269800662994 -0.474906355143 255 0 0
-0.0580269880593 -0.164905935526 0.490256935358 255 0 0
0.12581884861 -0.213122427464 -0.394152224064 255 0 0
-0.108931265771 0.39053350687 0.558887422085 255 0 0
-0.121883675456 0.372366994619 0.537429273129 255 0 0
-0.0992167517543 0.371279269457 0.59525257349 255 0 0
-0.126679807901 -0.227291107178 0.527448415756 255 0 0
-0.517959535122 -0.271752536297 -0.475941002369 255 0 0
-0.0964319109917 0.405878841877 0.572772562504 255 0 0
0.220278248191 -0.261936634779 -0.474465847015 255 0 0
0.103118896484 0.35656940937 0.606953024864 255 0 0
-0.00399013701826 0.406808912754 0.728625059128 255 0 0
-0.132213503122 -0.12839192152 0.396829873323 255 0 0
0.150693267584 -0.214382112026 -0.558414757252 255 0 0
-0.0336470007896 0.389692544937 0.394471108913 255 0 0
0.118634060025 -0.13067997992 0.415156722069 255 0 0
0.0955743566155 -0.223720505834 0.565686047077 255 0 0
-0.124137163162 -0.229723215103 -0.392632693052 255 0 0
-0.602143585682 -0.391819864511 -0.478345364332 255 0 0
-0.423475712538 -0.23008556664 -0.560244619846 255 0 0
-0.0637704133987 -0.0302720032632 0.475315451622 255 0 0
-0.0533820018172 -0.184962451458 0.517394185066 255 0 0
-0.100328087807 -0.179305508733 0.400818347931 255 0 0
-0.543976485729 -0.243061482906 -0.601719558239 255 0 0
0.0922885909677 -0.240725129843 0.524213314056 255 0 0
0.221838861704 -0.262956380844 -0.474942207336 255 0 0
0.203899860382 -0.265432983637 -0.480863034725 255 0 0
-0.590455472469 -0.263582140207 -0.596830844879 255 0 0
-0.27368247509 -0.23046797514 -0.588011085987 255 0 0
-0.244370028377 -0.221955657005 -0.564648926258 255 0 0
0.186531111598 -0.214666649699 -0.584581851959 255 0 0
0.193992853165 0.426806390285 0.662752985954 255 0 0
-0.0116153154522 -0.183245331049 0.514891088009 255 0 0
0.0415725186467 -0.228033065796 -0.514122903347 255 0 0
0.122348666191 -0.208517968655 -0.393796443939 255 0 0
0.199709251523 0.275590389967 0.655810236931 255 0 0
0.126596406102 0.245866551995 0.735530853271 255 0 0
-0.0973678678274 0.376378774643 0.59564769268 255 0 0
-0.0603331886232 -0.281837165356 -0.489979654551 255 0 0
-0.102062694728 -0.226356297731 -0.38845422864 255 0 0
0.104037821293 -0.238032713532 0.581689834595 255 0 0
-0.651547789574 -0.393930852413 -0.480683326721 255 0 0
-0.0817141979933 -0.322372883558 0.417358934879 255 0 0
-0.11064978689 0.389458686113 0.558817327023 255 0 0
0.1141615659 -0.244400158525 0.525084376335 255 0 0
0.0976655110717 0.34860882163 0.611711740494 255 0 0
-0.0984289720654 -0.179990157485 0.394973814487 255 0 0
0.216443091631 -0.235193714499 -0.631643533707 255 0 0
-0.602724611759 -0.258518010378 -0.587323606014 255 0 0
0.093196503818 -0.224645853043 0.558226406574 255 0 0
-0.132787659764 0.200798079371 0.402724146843 255 0 0
0.0740689262748 -0.0720853209496 0.398829638958 255 0 0
0.0537403300405 -0.225465580821 -0.524682939053 255 0 0
0.00579272815958 -0.166176021099 0.56130874157 255 0 0
0.151353508234 -0.213782981038 -0.552176654339 255 0 0
-0.520681023598 -0.276391416788 -0.475380897522 255 0 0
0.00765888951719 -0.122851409018 0.508955299854 255 0 0
-0.0642184242606 -0.028998427093 0.473319411278 255 0 0
-0.315816730261 -0.265895992517 -0.474490880966 255 0 0
0.198561474681 0.286312431097 0.641491830349 255 0 0
-0.118119738996 0.379064500332 0.554684758186 255 0 0
0.00543391285464 0.318746685982 0.340538054705 255 0 0
-0.246501296759 -0.221229076385 -0.558541536331 255 0 0
0.0209070108831 -0.219502732158 -0.519534289837 255 0 0
0.007280071266 -0.171070978045 0.569160759449 255 0 0
0.0108223343268 -0.174426451325 0.572858572006 255 0 0
-0.307511001825 -0.233747243881 -0.606488227844 255 0 0
-0.512215137482 -0.26772621274 -0.487597376108 255 0 0
-0.029053658247 -0.167427659035 0.534912526608 255 0 0
0.129429385066 0.425521850586 0.772837400436 255 0 0
0.247652873397 -0.267882347107 -0.488596022129 255 0 0
-0.0617499127984 0.438203692436 0.559816777706 255 0 0
-0.211520731449 -0.220714405179 -0.555854320526 255 0 0
-0.496002107859 -0.26609364152 -0.630765855312 255 0 0
-0.0571627952158 -0.187324225903 0.520289719105 255 0 0
-0.0892395302653 0.414773017168 0.540673315525 255 0 0
-0.0915904343128 0.409212708473 0.572537124157 255 0 0
-0.141360282898 -0.211383759975 0.544539809227 255 0 0
0.110702738166 0.220581993461 0.372320353985 255 0 0
0.00310384877957 0.40874004364 0.730665206909 255 0 0
0.0988255962729 -0.204748079181 0.264714837074 255 0 0
-0.00550027983263 0.408532589674 0.726508498192 255 0 0
-0.00621759425849 -0.18012163043 0.514869272709 255 0 0
0.1192028597 -0.127801433206 0.433694064617 255 0 0
-0.0457436107099 0.446626394987 0.539342045784 255 0 0
-0.511591732502 -0.26504021883 -0.487792551517 255 0 0
-0.083486944437 -0.211210101843 0.51400244236 255 0 0
-0.298242866993 -0.261605471373 -0.480196654797 255 0 0
-0.0855148285627 -0.316457003355 0.42871388793 255 0 0
0.106175683439 0.225446373224 0.404441803694 255 0 0
0.0981519594789 -0.120749674737 0.442263692617 255 0 0
-0.123700603843 0.223933130503 0.405988037586 255 0 0
0.0113917263225 -0.169170334935 0.557845890522 255 0 0
0.101923778653 0.364757835865 0.609571397305 255 0 0
0.105591788888 -0.212804228067 0.555698215961 255 0 0
-0.0566365756094 -0.175911411643 0.560861349106 255 0 0
-0.0930763781071 -0.232090696692 0.4484192729 255 0 0
0.106228224933 -0.114723443985 0.418894439936 255 0 0
-0.123811259866 -0.228804692626 0.568793356419 255 0 0
-0.0743591189384 -0.163199037313 0.471919238567 255 0 0
0.093411333859 -0.106921337545 0.413450181484 255 0 0
0.00405292212963 0.410545229912 0.73135381937 255 0 0
-0.101533398032 -0.251533746719 0.409017294645 255 0 0
0.104712873697 -0.223332881927 -0.406678825617 255 0 0
-0.0754758045077 -0.0201521310955 0.345171928406 255 0 0
0.206709876657 0.413616120815 0.756466209888 255 0 0
-0.313390851021 -0.244331255555 -0.616823017597 255 0 0
0.0770271420479 0.361943513155 0.502810716629 255 0 0
-0.11877258122 -0.111544534564 0.396256893873 255 0 0
-0.511408209801 -0.267282515764 -0.488217502832 255 0 0
-0.0331688821316 -0.375965118408 0.521996259689 255 0 0
-0.600839972496 -0.359748065472 -0.494928926229 255 0 0
0.204481482506 -0.260263115168 -0.48063492775 255 0 0
0.129844501615 0.224923595786 0.665149569511 255 0 0
-0.0885332971811 -0.278938829899 -0.359024882317 255 0 0
0.116405755281 0.421892613173 0.775089561939 255 0 0
-0.0948994606733 -0.225661605597 -0.404321283102 255 0 0
-0.136306360364 0.334538727999 0.549018859863 255 0 0
-0.105417758226 0.381957471371 0.583509266376 255 0 0
0.00950656365603 -0.17895796895 0.519946753979 255 0 0
0.0562151260674 -0.197098448873 0.522155821323 255 0 0
-0.0688935294747 0.128714770079 0.337626218796 255 0 0
-0.0949729084969 -0.202595755458 0.558113515377 255 0 0
-0.0400457344949 -0.170219302177 0.550689339638 255 0 0
-0.0459808818996 -0.197817638516 0.501832544804 255 0 0
0.0220966562629 0.259852439165 0.669214248657 255 0 0
0.0607382245362 0.304199516773 0.365997612476 255 0 0
-0.545485556126 -0.244706213474 -0.51404350996 255 0 0
0.0285623222589 0.26360014081 0.691141486168 255 0 0
-0.0416223108768 -0.104458667338 0.494205713272 255 0 0
-0.0568722523749 -0.184749111533 0.569414496422 255 0 0
-0.132008224726 -0.135646253824 0.369243144989 255 0 0
0.044653121382 0.420154005289 0.584950685501 255 0 0
0.0753217414021 0.385097384453 0.616584300995 255 0 0
-0.109763078392 -0.215673848987 0.54440587759 255 0 0
0.0267142150551 0.261616885662 0.670416533947 255 0 0
0.112462162971 -0.12184137851 0.404633849859 255 0 0
0.201273530722 0.411322176456 0.640527367592 255 0 0
0.022145729512 -0.174540489912 -0.374809622765 255 0 0
0.0269874799997 -0.178208425641 0.576815843582 255 0 0
0.102359473705 -0.219055891037 0.553428292274 255 0 0
-0.0931504890323 -0.200632184744 0.545614898205 255 0 0
-0.571187019348 -0.381461262703 -0.503393173218 255 0 0
0.0231835693121 -0.173214033246 -0.374493986368 255 0 0
-0.120971024036 -0.22819685936 -0.392506629229 255 0 0
-0.122180104256 0.224275097251 0.407963216305 255 0 0
-0.133737161756 0.371532022953 0.55968952179 255 0 0
-0.123804062605 0.377212166786 0.560779392719 255 0 0
0.110069833696 -0.121217355132 0.415360301733 255 0 0
-0.0197797715664 -0.174945518374 -0.374896854162 255 0 0
0.108170337975 -0.216127723455 0.557866334915 255 0 0
-0.12937258184 -0.237960398197 0.517436027527 255 0 0
-0.333229243755 -0.251201808453 -0.618253707886 255 0 0
-0.114886082709 -0.218077853322 0.556353330612 255 0 0
-0.0685713812709 -0.20258410275 0.514037072659 255 0 0
