ply
format ascii 1.0
comment https://github.com/EricCJoyce
element vertex 842
property float x
property float y
property float z
property uchar red
property uchar green
property uchar blue
end_header
0.0668569803238 0.0670567974448 0.216179206967 255 255 0
0.0241796039045 0.174303025007 0.103275492787 255 255 0
0.0549305304885 0.181039944291 0.098713926971 255 255 0
0.0544006824493 0.18324971199 0.0949864462018 255 255 0
-0.0108598712832 0.173217341304 0.155975535512 255 255 0
0.0289783552289 0.172817572951 0.12721516192 255 255 0
-0.0381457842886 0.173533529043 0.103720664978 255 255 0
0.100116707385 0.0682377070189 0.232380762696 255 255 0
-0.0294412374496 0.174521818757 0.100821308792 255 255 0
0.0226194001734 0.171327993274 0.131713792682 255 255 0
0.0773159787059 0.0674877539277 0.220440268517 255 255 0
0.0133698023856 0.200085714459 0.0628131330013 255 255 0
0.014183903113 0.170505687594 0.130722627044 255 255 0
0.0572959445417 0.0672148168087 0.228258922696 255 255 0
0.112466387451 0.0676302537322 0.217726364732 255 255 0
0.0124973608181 0.171077817678 0.130668446422 255 255 0
-0.0404727160931 0.174186185002 0.103593245149 255 255 0
-0.00797752663493 0.174327775836 0.116609402001 255 255 0
-0.00352185661905 0.181161344051 0.0867414101958 255 255 0
0.108007192612 0.0674375295639 0.215421020985 255 255 0
0.0345896705985 0.173742592335 0.144913226366 255 255 0
-0.0044600465335 0.182911127806 0.0862688869238 255 255 0
0.0175732057542 0.173339024186 0.158102825284 255 255 0
0.0577957257628 0.0667439997196 0.226237893105 255 255 0
-0.00790455471724 0.17442895472 0.0954820364714 255 255 0
0.0252515282482 0.174715593457 0.0977709665895 255 255 0
0.0204334184527 0.174236014485 0.158473297954 255 255 0
0.0325452163815 0.172820270061 0.143131688237 255 255 0
0.0147970914841 0.173325672746 0.156113773584 255 255 0
0.0251219235361 0.177932977676 0.0857227146626 255 255 0
0.024650529027 0.189516469836 0.0827065780759 255 255 0
0.0224891994148 0.174571037292 0.0985995158553 255 255 0
0.0333187133074 0.173634767532 0.144786268473 255 255 0
0.0237418804318 0.174512729049 0.0970089361072 255 255 0
0.0183246750385 0.174284905195 0.15804477036 255 255 0
0.129101589322 0.0681755170226 0.228736951947 255 255 0
0.0162005145103 0.171069160104 0.130568772554 255 255 0
0.0289323329926 0.171633496881 0.143617406487 255 255 0
0.00859246402979 0.170956388116 0.130628794432 255 255 0
0.0247673522681 0.200389355421 0.0658668279648 255 255 0
0.0451220273972 0.174653291702 0.120213754475 255 255 0
0.0298135858029 0.171818852425 0.142185896635 255 255 0
-0.0162122827023 0.201966434717 0.0518695451319 255 255 0
0.0457003824413 0.174512863159 0.117895722389 255 255 0
-0.0378318615258 0.118618197739 0.0466164536774 255 255 0
-0.0379748679698 0.173191338778 0.158029586077 255 255 0
0.014715529047 0.173226311803 0.154660344124 255 255 0
0.0246858373284 0.170640319586 0.142824947834 255 255 0
0.0193477533758 0.174336373806 0.157768145204 255 255 0
0.0156662464142 0.199220240116 0.0616755969822 255 255 0
0.0572096928954 0.188459202647 0.097826115787 255 255 0
0.0438317507505 0.174405366182 0.117901846766 255 255 0
0.0221311915666 0.20071195066 0.0661882534623 255 255 0
-0.0162175893784 0.177206143737 0.170039430261 255 255 0
0.0402805171907 0.174710139632 0.091236948967 255 255 0
-0.0135510377586 0.200139045715 0.0662418454885 255 255 0
0.0277779977769 0.171763539314 0.142324909568 255 255 0
0.114483848214 0.0680214315653 0.231350243092 255 255 0
0.0235175993294 0.200450092554 0.065748155117 255 255 0
0.159838318825 0.0680545195937 0.24853014946 255 255 0
0.000129712716443 0.179033979774 0.0871556475759 255 255 0
0.0226576793939 0.170759230852 0.140915483236 255 255 0
-0.019136974588 0.186971947551 0.0841036736965 255 255 0
0.044181317091 0.174664691091 0.121601268649 255 255 0
-0.0681976377964 0.0806112065911 -0.233112514019 255 255 0
-0.0367133766413 0.174361348152 0.159252226353 255 255 0
0.0325905382633 0.19523589313 0.0677605867386 255 255 0
-0.0349657535553 0.174167573452 0.161282286048 255 255 0
0.00052729313029 0.179976761341 0.0865363776684 255 255 0
0.0347768999636 0.194108188152 0.0671233683825 255 255 0
0.152508050203 0.0666134133935 -0.25293686986 255 255 0
0.0590948015451 0.190453439951 0.0981820076704 255 255 0
0.0342291966081 0.194623962045 0.0686431974173 255 255 0
0.042501911521 0.175618886948 0.153234094381 255 255 0
0.0226346626878 0.198843508959 0.0731488093734 255 255 0
-0.0578920133412 0.17723838985 0.122440502048 255 255 0
-0.0387677252293 0.174213290215 0.159609004855 255 255 0
-0.0245509669185 0.179385095835 0.17213717103 255 255 0
0.0293197371066 0.196882665157 0.0699314251542 255 255 0
-0.0374047569931 0.17445550859 0.158285111189 255 255 0
-0.0465012528002 0.173977136612 0.134071722627 255 255 0
0.0525387600064 0.185051739216 0.0882123038173 255 255 0
-0.00707306759432 0.193631902337 0.0549845322967 255 255 0
-0.0232417210937 0.180818036199 0.172056078911 255 255 0
-0.0107919489965 0.176411494613 0.0903853625059 255 255 0
-0.015196159482 0.200433641672 0.0678623393178 255 255 0
0.058065187186 0.185233637691 0.135989516973 255 255 0
0.0314471423626 0.195856541395 0.0706494525075 255 255 0
0.0238176584244 0.198968052864 0.07391179353 255 255 0
-0.0221332963556 0.178791373968 0.0869510993361 255 255 0
0.0382328480482 0.174715876579 0.107412129641 255 255 0
0.037518914789 0.175418287516 0.0897865742445 255 255 0
-0.0269583482295 0.175621941686 0.089638248086 255 255 0
0.0396961458027 0.186014175415 0.186710253358 255 255 0
0.0331286042929 0.181739598513 0.0846652686596 255 255 0
0.0218354295939 0.174746006727 0.107775911689 255 255 0
-0.0195502638817 0.174483537674 0.108963213861 255 255 0
0.0831936001778 0.124214202166 0.127902269363 255 255 0
0.00112694560084 0.182683691382 0.199236661196 255 255 0
0.027189206332 0.100814640522 0.197966754436 255 255 0
0.00624776165932 0.176315039396 0.168236538768 255 255 0
0.0240823011845 0.0990927368402 0.198760658503 255 255 0
0.12010781467 0.068172685802 0.235020384192 255 255 0
-0.0588579401374 0.178113088012 0.122764512897 255 255 0
0.0431387349963 0.175489455462 0.151974439621 255 255 0
-0.0155030982569 0.195271283388 0.0790063813329 255 255 0
0.00837090611458 0.189391925931 0.0824751630425 255 255 0
-0.0466168038547 0.173944696784 0.13535836339 255 255 0
-0.0442323200405 0.17457588017 0.0961578562856 255 255 0
0.0375179760158 0.192942857742 0.0671477764845 255 255 0
0.0430181697011 0.17483958602 0.11850759387 255 255 0
-0.051440436393 0.174566417933 0.1168012321 255 255 0
0.0236760117114 0.190300136805 0.0821106210351 255 255 0
0.0514798611403 0.176179975271 0.105219528079 255 255 0
0.0385464243591 0.177181065083 0.0885202437639 255 255 0
0.0397417657077 0.184829086065 0.187387064099 255 255 0
0.110031783581 0.0674760788679 0.22745397687 255 255 0
-0.0503280870616 0.174420386553 0.138499036431 255 255 0
0.0528768002987 0.177097946405 0.104435555637 255 255 0
0.116126075387 0.0673685222864 0.229718267918 255 255 0
-0.0232181530446 0.195550575852 0.0480488091707 255 255 0
-0.0552208125591 0.0812778025866 -0.23397539556 255 255 0
0.0425160080194 0.174798473716 0.111782252789 255 255 0
-0.0344579257071 0.124073654413 0.193587273359 255 255 0
-0.0360841229558 0.116170212626 0.193327158689 255 255 0
-0.00773432012647 0.188945457339 0.0462798401713 255 255 0
0.0508163571358 0.174309268594 0.128622308373 255 255 0
0.15537083149 0.0140475314111 -0.23879468441 255 255 0
-0.0616279058158 0.18562528491 0.136872410774 255 255 0
0.0291480142623 0.196389362216 0.0621105693281 255 255 0
0.0375987142324 0.17497189343 0.0971464216709 255 255 0
-0.0161329638213 0.180016905069 0.0868466049433 255 255 0
0.0173855349422 0.200079768896 0.0669607892632 255 255 0
0.0160290971398 0.192061394453 0.0808656737208 255 255 0
-0.0356152541935 0.191525965929 0.0726446658373 255 255 0
0.0600874722004 0.190477147698 0.141196787357 255 255 0
0.0353695675731 0.181391775608 0.0846762061119 255 255 0
0.0418703556061 0.174069523811 0.0914481431246 255 255 0
0.030427493155 0.19666698575 0.064097031951 255 255 0
0.0128793427721 0.191166758537 0.0533712208271 255 255 0
-0.0249981321394 0.136637941003 0.19713909924 255 255 0
0.0506090037525 0.153792217374 0.114757008851 255 255 0
0.155461400747 0.010554487817 -0.237272918224 255 255 0
-0.0266280639917 0.143730714917 0.196423217654 255 255 0
-0.04517435655 0.1731954813 0.112801961601 255 255 0
-0.0552347898483 0.174509137869 0.130207672715 255 255 0
-0.0346717610955 0.191695928574 0.0692247524858 255 255 0
0.0288030039519 0.184137821198 0.0842758864164 255 255 0
0.0162832662463 0.172747135162 0.15095102787 255 255 0
-0.0335921868682 0.191170960665 0.0699276775122 255 255 0
-0.0350930765271 0.174055442214 0.107999302447 255 255 0
-0.0446345731616 0.186809718609 0.0849567875266 255 255 0
-0.0289595983922 0.174290686846 0.0922529101372 255 255 0
0.0495955646038 0.173058703542 0.109205275774 255 255 0
-0.0552981719375 0.174014419317 0.122282758355 255 255 0
0.0339857302606 0.187652021646 0.170561745763 255 255 0
0.138262763619 0.0677969157696 -0.240483567119 255 255 0
0.0492044985294 0.174576759338 0.139516949654 255 255 0
0.0543983876705 0.189508110285 0.0688749477267 255 255 0
0.0296375192702 0.184701621532 0.172278642654 255 255 0
0.145618870854 0.0687510073185 0.206930309534 255 255 0
0.139259085059 0.0678761228919 0.204859316349 255 255 0
-0.0197130870074 0.190034344792 0.0825158208609 255 255 0
0.0584113113582 0.190415620804 0.0806556716561 255 255 0
-0.00884107779711 0.175870239735 0.0899704918265 255 255 0
0.159744441509 0.0439759008586 0.244308158755 255 255 0
0.00848755706102 0.176411375403 0.167599886656 255 255 0
0.017704853788 0.192418366671 0.0809688195586 255 255 0
0.117276571691 0.0678174495697 0.228476300836 255 255 0
0.0141427116469 0.19083340466 0.0528523884714 255 255 0
-0.0666060447693 0.0702818110585 -0.242985293269 255 255 0
-0.0356025211513 0.173628509045 0.0996968820691 255 255 0
-0.0502878390253 0.150569453835 0.183502525091 255 255 0
0.0387306697667 0.174694418907 0.105902835727 255 255 0
0.0697246938944 0.147235006094 0.123131290078 255 255 0
0.155530646443 0.0390284992754 -0.247339516878 255 255 0
0.147979870439 0.0681888833642 0.208704590797 255 255 0
0.0207127854228 0.171321764588 0.147481009364 255 255 0
-0.00771072134376 0.174840196967 0.166451469064 255 255 0
0.139799624681 0.068474881351 0.207878142595 255 255 0
0.160053133965 0.0426879562438 0.244461268187 255 255 0
-0.154558211565 0.0238709636033 0.142446160316 255 255 0
-0.046245586127 0.173216953874 0.112303964794 255 255 0
0.154046446085 0.0667043998837 0.23365214467 255 255 0
-0.0592367984354 0.0758732035756 -0.221766769886 255 255 0
-0.0368090048432 0.190959513187 0.0739635899663 255 255 0
-0.0561299137771 0.0747686848044 -0.240602552891 255 255 0
0.141451969743 0.0681148469448 0.206755429506 255 255 0
0.137064531446 0.0679768100381 0.204414948821 255 255 0
-0.156140580773 0.0397385582328 0.240007668734 255 255 0
-0.0418873652816 0.172828152776 0.115970306098 255 255 0
-0.00739508448169 0.0707576274872 -0.258428901434 255 255 0
0.137264296412 0.0680732652545 0.205418720841 255 255 0
0.155778482556 0.0444977730513 -0.24799387157 255 255 0
0.0787190273404 0.184663951397 0.131427183747 255 255 0
0.0324061661959 0.174926072359 0.103632882237 255 255 0
0.15579302609 0.0365906096995 -0.246315896511 255 255 0
-0.0605720542371 0.0763365700841 -0.221574157476 255 255 0
0.0228800177574 0.191426381469 0.0814650505781 255 255 0
-0.0123069398105 0.175503954291 0.0900575816631 255 255 0
-0.0031210470479 0.186579614878 0.0838205516338 255 255 0
0.0216900184751 0.17219273746 0.147255882621 255 255 0
-0.0488253235817 0.174935653806 0.0926485434175 255 255 0
-0.0068247905001 0.191147521138 0.0784658566117 255 255 0
0.12880396843 0.0686321929097 0.221930474043 255 255 0
-0.00640711234882 0.191489830613 0.0771603882313 255 255 0
-0.0358348563313 0.174113363028 0.106809392571 255 255 0
0.0523841381073 0.0800383388996 0.0545771196485 255 255 0
0.00984869990498 0.176727563143 0.168464109302 255 255 0
0.0589431636035 0.183361276984 0.0650815665722 255 255 0
-0.063494309783 0.0758665055037 -0.221125558019 255 255 0
0.0233755204827 0.193476170301 0.080364741385 255 255 0
-0.00732490140945 0.190752506256 0.0797945410013 255 255 0
-0.0115422420204 0.194847717881 0.0782166644931 255 255 0
0.0157152917236 0.172840148211 0.152388244867 255 255 0
0.0240318253636 0.191199317575 0.0532242432237 255 255 0
0.0313038229942 0.175266698003 0.103436090052 255 255 0
-0.109733045101 0.0673686489463 0.0867548808455 255 255 0
-0.00884652417153 0.193552270532 0.076137945056 255 255 0
0.00119327043649 0.172461405396 0.123486630619 255 255 0
0.0208356119692 0.171294927597 0.145668774843 255 255 0
0.0306507498026 0.174378335476 0.111053064466 255 255 0
0.0301647055894 0.175007402897 0.110090702772 255 255 0
-0.0535967312753 0.174309432507 0.121640838683 255 255 0
0.046669319272 0.168417543173 0.118174135685 255 255 0
0.0505075939 0.175496071577 0.140998259187 255 255 0
0.153932601213 0.0678886696696 0.233485490084 255 255 0
-0.11255646497 0.0672013610601 -0.238564223051 255 255 0
0.148384660482 0.0681082308292 0.210577115417 255 255 0
-0.0717891678214 0.067177541554 0.00354341580532 255 255 0
0.039687436074 0.175322040915 0.112117484212 255 255 0
0.0401398651302 0.185810878873 0.185772955418 255 255 0
0.087585426867 0.0675520375371 0.239346325397 255 255 0
0.144257992506 0.0684402137995 0.207871794701 255 255 0
0.0129501661286 0.200317949057 0.066595248878 255 255 0
0.00142822542693 0.171653077006 0.147896528244 255 255 0
-0.00891929678619 0.174793437123 0.165696650743 255 255 0
0.135907977819 0.0680949687958 0.204472318292 255 255 0
0.0362065546215 0.188658341765 0.170969456434 255 255 0
0.0957416594028 0.0671413168311 0.199752613902 255 255 0
0.0224088542163 0.195473328233 0.0789008885622 255 255 0
0.138831913471 0.0684757903218 0.214943125844 255 255 0
0.030394366011 0.186462879181 0.173012495041 255 255 0
0.0193946380168 0.0691324919462 0.249639734626 255 255 0
0.0207657497376 0.184717074037 0.196243166924 255 255 0
-0.0529333874583 0.174849390984 0.131025388837 255 255 0
-0.147376328707 0.0710849761963 0.249263212085 255 255 0
0.0672885924578 0.185337781906 0.160479798913 255 255 0
0.00199174159206 0.175202786922 0.165660753846 255 255 0
0.0303627178073 0.174329549074 0.105780296028 255 255 0
0.0285126827657 0.196923181415 0.0610171481967 255 255 0
0.0200491435826 0.190308228135 0.0821777880192 255 255 0
0.00158212217502 0.171614587307 0.146364197135 255 255 0
0.0765115097165 0.067009717226 0.207047984004 255 255 0
0.0428900942206 0.175321727991 0.125373199582 255 255 0
-0.0176789015532 0.0688662976027 0.250252813101 255 255 0
0.0969533771276 0.0676132515073 0.200247317553 255 255 0
0.0555537045002 0.0670280978084 0.223643615842 255 255 0
0.0706117749214 0.164019629359 0.121362224221 255 255 0
0.0442662611604 0.175094559789 0.143963873386 255 255 0
0.000573219323996 0.191518247128 0.0724944621325 255 255 0
-0.0275627300143 0.173871070147 0.111351251602 255 255 0
0.0247643180192 0.174459323287 0.0440864041448 255 255 0
-0.0211092382669 0.173782989383 0.16273958981 255 255 0
-0.0180996824056 0.0696619600058 0.249633997679 255 255 0
0.0545401871204 0.180108860135 0.145946368575 255 255 0
0.0960217416286 0.067267075181 0.198046401143 255 255 0
0.0243913736194 0.183317795396 0.17196598649 255 255 0
-0.0981731712818 0.067917175591 0.212812274694 255 255 0
0.0767183825374 0.0671269968152 0.205431580544 255 255 0
-0.000497134868056 0.171255558729 0.14556106925 255 255 0
-0.00976265128702 0.187407210469 0.0455091334879 255 255 0
-0.0167606472969 0.165811151266 0.199175193906 255 255 0
0.0389385521412 0.175146356225 0.1550347507 255 255 0
0.0829870924354 0.125454798341 0.124469056726 255 255 0
-0.02629198879 0.189208596945 0.0813784152269 255 255 0
0.136170372367 0.0679862722754 0.22594922781 255 255 0
0.05922780931 0.19182549417 0.149709865451 255 255 0
-0.0392384901643 0.175185471773 0.161075294018 255 255 0
0.000986839761026 0.172082841396 0.147063329816 255 255 0
0.0216183867306 0.1912240237 0.0816353484988 255 255 0
0.108372859657 0.0681650862098 0.219267234206 255 255 0
0.134977757931 0.0684736445546 0.207170441747 255 255 0
0.0863712206483 0.068467952311 0.239291846752 255 255 0
0.00334091042168 0.174898147583 0.165347069502 255 255 0
-0.00759150739759 0.176064357162 0.168930381536 255 255 0
0.101502157748 0.0673284903169 0.205789893866 255 255 0
-0.0194582939148 0.176840081811 0.198557436466 255 255 0
-0.010854082182 0.0703120231628 -0.257927507162 255 255 0
0.0545210726559 0.187869817019 0.150489762425 255 255 0
0.0444395057857 0.175218045712 0.147763893008 255 255 0
-0.0252573806792 0.197038248181 0.0590900219977 255 255 0
0.140196189284 0.0681262612343 0.224847510457 255 255 0
0.127896666527 0.0679057091475 0.196814447641 255 255 0
-0.154598861933 0.00312264915556 0.178742572665 255 255 0
0.0306465923786 0.174604102969 0.107447557151 255 255 0
0.0701804980636 0.162006467581 0.112552806735 255 255 0
0.0755425989628 0.18849401176 0.13276232779 255 255 0
-0.015758221969 0.190770298243 0.179684773088 255 255 0
0.0716169402003 0.184765905142 0.151733547449 255 255 0
-0.145532101393 0.0671961009502 -0.253035694361 255 255 0
0.15816886723 -0.00149194290861 0.209400087595 255 255 0
0.0438917018473 0.174757525325 0.142916306853 255 255 0
-0.144870594144 0.0665087476373 -0.253871917725 255 255 0
0.11562602222 0.0679774582386 0.21107365191 255 255 0
0.060779388994 0.187534853816 0.0717501118779 255 255 0
-0.146257996559 0.0668656080961 -0.254941701889 255 255 0
0.0227274876088 0.18715980649 0.0834840983152 255 255 0
-0.11029805243 0.0679365098476 0.229476422071 255 255 0
-0.0141191044822 0.154758378863 0.199619010091 255 255 0
-0.051942307502 0.184609010816 0.089615188539 255 255 0
0.0784653946757 0.0671934708953 0.205062568188 255 255 0
0.0703792273998 0.189459607005 0.142255365849 255 255 0
0.0734192058444 0.0673406720161 0.215080186725 255 255 0
-0.0221135485917 0.179873630404 0.197325900197 255 255 0
-0.0388231910765 0.175019234419 0.0917956903577 255 255 0
0.0215201564133 0.174288794398 0.116306297481 255 255 0
0.00616536848247 0.195968732238 0.0645804926753 255 255 0
0.0702078938484 0.149947211146 0.121413066983 255 255 0
-0.00315095041879 0.191144198179 0.0735021457076 255 255 0
0.154244706035 0.0672045052052 0.104404777288 255 255 0
-0.0256141964346 0.193415358663 0.0764274001122 255 255 0
0.0200975257903 0.175227403641 0.116505466402 255 255 0
0.0594851002097 0.0674655511975 0.221088886261 255 255 0
-0.154840067029 0.00638643885031 0.17938709259 255 255 0
-0.0489675886929 0.186574518681 0.0864715054631 255 255 0
0.0664523467422 0.192957997322 0.136526718736 255 255 0
0.0578933544457 0.191681459546 0.15119343996 255 255 0
-0.0102092223242 0.196612507105 0.0746886283159 255 255 0
-0.143751293421 0.0671242922544 -0.252605527639 255 255 0
0.0770669206977 0.185094445944 0.137649133801 255 255 0
0.0189300514758 0.173210263252 0.123551614583 255 255 0
-0.0144287701696 0.172676607966 0.150024786592 255 255 0
0.0747241005301 0.182126820087 0.149814561009 255 255 0
0.00515452865511 0.194988504052 0.0626653134823 255 255 0
0.0222879312932 0.17479634285 0.0952162370086 255 255 0
-0.13142631948 0.0662327557802 -0.244835674763 255 255 0
0.0800447836518 0.0671256929636 0.209557965398 255 255 0
-0.00327007309534 0.0737927481532 0.028070230037 255 255 0
0.0118594216183 0.19176967442 0.0548378415406 255 255 0
-0.111184254289 0.0662310644984 -0.239902943373 255 255 0
-0.0494442805648 0.0699283182621 -0.222937911749 255 255 0
-0.0273312814534 0.189887464046 0.079737149179 255 255 0
0.100326411426 0.0671271681786 0.197319686413 255 255 0
-0.00787439383566 0.191648125648 0.0798280537128 255 255 0
-0.0332024209201 0.190657570958 0.0668209642172 255 255 0
0.0824782848358 0.0667095631361 0.227672860026 255 255 0
0.0816778317094 0.0671841651201 0.213498800993 255 255 0
0.00777040189132 0.189812809229 0.188238963485 255 255 0
0.0243085864931 0.185266107321 0.173319727182 255 255 0
0.0207623485476 0.172762185335 0.124210327864 255 255 0
0.0334310904145 0.0684549584985 0.210815683007 255 255 0
-0.0695530995727 0.0698740929365 0.250375658274 255 255 0
-0.11204624176 0.066867262125 -0.235900163651 255 255 0
0.157735288143 0.00360037339851 0.158367037773 255 255 0
0.141658693552 0.0693322941661 0.241001322865 255 255 0
0.0109128830954 0.188990622759 0.0828762724996 255 255 0
0.130234226584 0.0680183023214 0.204167366028 255 255 0
0.109263151884 0.068040587008 0.195142894983 255 255 0
0.00016808755754 0.192512869835 0.0546069592237 255 255 0
-0.0245396979153 0.194047287107 0.0769954845309 255 255 0
0.158187389374 0.00551019003615 0.174430802464 255 255 0
-0.0352246835828 0.180827483535 0.17006842792 255 255 0
-0.0339262336493 0.187138184905 0.174911990762 255 255 0
-0.0291424486786 0.175056174397 0.168041840196 255 255 0
0.139043316245 0.0687147527933 0.22547788918 255 255 0
0.014602093026 0.195187702775 0.0789871364832 255 255 0
-0.00475857080892 0.186254575849 0.0440522097051 255 255 0
-0.131583571434 -0.0854498669505 0.257689774036 255 255 0
-0.0180194638669 0.189673513174 0.188175812364 255 255 0
-0.138310790062 0.0667816177011 -0.248343661427 255 255 0
0.0643379092216 0.191855028272 0.123050376773 255 255 0
0.0234635993838 0.0674629360437 0.0185049977154 255 255 0
-0.00496597914025 0.194423511624 0.0631655454636 255 255 0
0.0695602819324 0.159602344036 0.126243367791 255 255 0
-0.00401520030573 0.0699706524611 -0.253353506327 255 255 0
-0.028011534363 0.191500544548 0.077875085175 255 255 0
-0.0550563894212 0.175008192658 0.114463627338 255 255 0
-0.034052554518 0.174001798034 0.118318475783 255 255 0
0.0559524334967 0.178894683719 0.142614930868 255 255 0
0.0562030263245 0.0669733285904 0.23476408422 255 255 0
0.0954142734408 0.0726463720202 0.127858191729 255 255 0
0.062710262835 0.0675795003772 0.235222131014 255 255 0
-0.142609059811 0.0691363215446 0.235912159085 255 255 0
0.0230562966317 0.193166360259 0.0561402253807 255 255 0
-0.0353050418198 0.173474982381 0.116376660764 255 255 0
0.14723727107 0.0703729838133 0.247968643904 255 255 0
0.00719205429778 0.175698637962 0.0893339589238 255 255 0
-0.1451395154 0.0675813108683 0.0901793316007 255 255 0
0.0372359119356 0.187600404024 0.18509401381 255 255 0
-0.0447199456394 0.0689301416278 -0.254610925913 255 255 0
-0.0569443143904 0.0710097253323 -0.242209687829 255 255 0
0.0817715674639 0.0670423433185 0.22831094265 255 255 0
-0.0304526817054 0.17758923769 0.16973182559 255 255 0
0.116906300187 0.0684050470591 0.209900602698 255 255 0
0.0388631820679 0.19047293067 0.17389164865 255 255 0
0.0337197743356 0.0673585981131 0.212778061628 255 255 0
-0.00249182805419 0.173874005675 0.121004171669 255 255 0
0.153837770224 0.0668538883328 0.127277985215 255 255 0
0.157550036907 -0.0120485806838 0.206409886479 255 255 0
0.0837196037173 0.0859996825457 0.107211306691 255 255 0
0.0197382550687 0.148017033935 0.199658170342 255 255 0
-0.0261602457613 0.173823922873 0.108381450176 255 255 0
0.149000227451 0.0676024034619 -0.165128439665 255 255 0
-0.0279326066375 0.170955955982 0.135566607118 255 255 0
-0.00108627369627 0.192119598389 0.0540111847222 255 255 0
0.154724270105 0.0646576434374 -0.0459122098982 255 255 0
0.0253095962107 0.192338392138 0.0549756623805 255 255 0
-0.0420858748257 0.0697885900736 0.249838545918 255 255 0
0.0826044455171 0.0691896229982 0.249546319246 255 255 0
-0.00649588182569 0.174508392811 0.108053013682 255 255 0
-0.000437252019765 0.182474285364 0.172757476568 255 255 0
0.0625775530934 0.190535858274 0.114740028977 255 255 0
0.115018844604 0.0679634511471 0.184345752001 255 255 0
0.0753435119987 0.0677123293281 0.210546582937 255 255 0
0.0865926891565 0.076433815062 0.09544146806 255 255 0
0.114969424903 0.0680210962892 0.181531444192 255 255 0
0.0927664116025 0.0751793757081 0.123902224004 255 255 0
0.0711243897676 0.163293331861 0.119679696858 255 255 0
0.0324007309973 0.194182828069 0.0742357596755 255 255 0
0.118279136717 0.0680422559381 0.219923004508 255 255 0
0.151743337512 0.0654531270266 -0.246671259403 255 255 0
0.15575286746 0.00441705621779 -0.155848547816 255 255 0
0.042755946517 0.0673531517386 0.210642382503 255 255 0
0.00750683480874 0.174414411187 0.108232058585 255 255 0
-0.039680544287 0.173101320863 0.134101882577 255 255 0
0.0879176482558 0.0789998993278 0.111310638487 255 255 0
-0.0445758886635 0.174040049314 0.146722599864 255 255 0
0.0633038654923 0.191677734256 0.122020542622 255 255 0
0.0144154848531 0.183278143406 0.0839132815599 255 255 0
-0.105501554906 0.0674175173044 0.216586261988 255 255 0
0.0130408331752 0.187043473125 0.0836960449815 255 255 0
-0.0379102826118 0.17339232564 0.144974455237 255 255 0
0.0649838298559 0.0669702738523 0.231081202626 255 255 0
0.0286905765533 0.173902586102 0.153870388865 255 255 0
-0.0581852756441 0.0687589868903 -0.252821296453 255 255 0
-0.079825989902 0.0672675594687 -0.00928578525782 255 255 0
-0.140267685056 0.068447239697 0.233408838511 255 255 0
0.156078994274 0.00761464145035 -0.156395375729 255 255 0
-0.00106971908826 0.186541110277 0.0440477989614 255 255 0
0.0242062304169 0.192282453179 0.0552805177867 255 255 0
0.0815859511495 0.0688853263855 0.249948531389 255 255 0
-0.025044798851 0.190528199077 0.182144954801 255 255 0
-0.140602812171 0.0691556856036 0.23790679872 255 255 0
-0.0293973349035 0.171212017536 0.135329455137 255 255 0
0.102111808956 0.0685286596417 0.240799859166 255 255 0
-0.133935451508 0.0674094855785 -0.0335029400885 255 255 0
0.0262555796653 0.0733301490545 0.205831438303 255 255 0
-0.0338637828827 0.0671348720789 0.210710451007 255 255 0
0.0213050339371 0.157228425145 0.198906391859 255 255 0
-0.0416705310345 0.173996239901 0.134546622634 255 255 0
0.101660057902 0.067958123982 0.204873234034 255 255 0
-0.0431050099432 0.184121698141 0.0859965011477 255 255 0
-0.044283285737 0.174232661724 0.144618988037 255 255 0
0.0805448591709 0.0678338184953 0.228484466672 255 255 0
0.0245383363217 0.174823239446 0.095868088305 255 255 0
-0.02846631594 0.068037353456 -0.228489145637 255 255 0
0.134036228061 0.0686201676726 0.127062141895 255 255 0
0.102443657815 0.0676078125834 0.205538704991 255 255 0
0.0287031326443 0.173299610615 0.152858152986 255 255 0
-0.0214377138764 0.199751257896 0.053742017597 255 255 0
0.0106287775561 0.174563810229 0.116598695517 255 255 0
0.0288262590766 0.175771474838 0.0893317013979 255 255 0
-0.0381210185587 0.173046350479 0.135628581047 255 255 0
-0.142619922757 0.069059021771 0.23885139823 255 255 0
0.0346677266061 0.19021692872 0.173120215535 255 255 0
0.0181740839034 0.0739784687757 0.206913679838 255 255 0
0.12307523191 0.0681886523962 0.222122862935 255 255 0
-0.034630972892 0.0676435679197 0.20939591527 255 255 0
0.155589446425 0.00765776541084 -0.138278499246 255 255 0
0.135403320193 0.0694744884968 0.250088483095 255 255 0
0.0519114434719 0.0708249285817 0.19859072566 255 255 0
0.118876464665 0.0678143426776 0.186363995075 255 255 0
-0.0248919408768 0.196258351207 0.0602353513241 255 255 0
0.13488766551 0.0692307651043 0.248634785414 255 255 0
-0.00829066894948 0.17365115881 0.122154355049 255 255 0
0.07212677598 0.188974380493 0.0972278639674 255 255 0
0.154536172748 0.0642117187381 -0.204825252295 255 255 0
0.00468412414193 0.193849608302 0.0760305076838 255 255 0
0.00852218084037 0.190832301974 0.182748064399 255 255 0
-0.0606874339283 0.181996911764 0.128640323877 255 255 0
-0.0029473924078 0.190183132887 0.184727549553 255 255 0
-0.0256598703563 0.189954325557 0.185169175267 255 255 0
0.00865810923278 0.174197733402 0.0976300612092 255 255 0
0.00883151125163 0.190952166915 0.180663704872 255 255 0
-0.0250001493841 0.068109318614 -0.229925587773 255 255 0
-0.0278670825064 0.0676622763276 -0.233540430665 255 255 0
0.0655108913779 0.1889398247 0.154689475894 255 255 0
0.028327068314 0.0680082514882 -0.250393211842 255 255 0
-0.0238264556974 0.190921515226 0.181557312608 255 255 0
0.00269852718338 0.192344769835 0.0686361342669 255 255 0
0.0647381544113 0.189284071326 0.155654147267 255 255 0
-0.0250896532089 0.185005247593 0.084439560771 255 255 0
0.00649741245434 0.184793174267 0.173908755183 255 255 0
-0.0230917111039 0.198403149843 0.0583533532917 255 255 0
0.0440666116774 0.176328122616 0.157392635942 255 255 0
0.156787544489 0.00132359960116 0.0601824112236 255 255 0
0.125836119056 0.0679430365562 0.211376309395 255 255 0
0.0657148733735 0.187421813607 0.159822016954 255 255 0
0.050508517772 0.0685293599963 0.0318014994264 255 255 0
-0.0472272597253 0.174349591136 0.147156715393 255 255 0
0.140697732568 0.0687224194407 0.223018065095 255 255 0
0.101272977889 0.067812949419 -0.257523834705 255 255 0
0.073042884469 0.188853546977 0.0994175449014 255 255 0
0.0392334908247 0.0741134434938 0.200418129563 255 255 0
0.0590705834329 0.184336706996 0.123655922711 255 255 0
0.00767713785172 0.174762576818 0.0976893156767 255 255 0
0.0385574661195 0.174844369292 0.130667105317 255 255 0
0.00972517393529 0.191030189395 0.181244656444 255 255 0
-0.000348808214767 0.185837849975 0.0440455079079 255 255 0
0.0928352400661 0.0729945003986 0.0986367166042 255 255 0
0.137911140919 0.068623945117 0.226278349757 255 255 0
-0.0226938482374 0.19829428196 0.0523579232395 255 255 0
0.0904096364975 0.0761750042439 0.108270309865 255 255 0
-0.0253288354725 0.0891943573952 0.197549521923 255 255 0
-0.0441948734224 0.190610691905 0.0765404999256 255 255 0
-0.00903581082821 0.172478750348 0.122443437576 255 255 0
0.075853690505 0.0669518187642 0.212329655886 255 255 0
0.0313144996762 0.0745766535401 0.0326774418354 255 255 0
-0.0414029099047 0.174059152603 0.10501627624 255 255 0
0.0161900203675 0.109893321991 0.200181812048 255 255 0
0.0987491831183 0.0714451521635 0.124005131423 255 255 0
-0.0629725828767 0.083891928196 -0.232909113169 255 255 0
0.0245689228177 0.183957859874 0.17283128202 255 255 0
0.00911775883287 0.0690179690719 -0.253962129354 255 255 0
0.0298247225583 0.174312531948 0.0914788991213 255 255 0
0.153790146112 0.0673972964287 0.165598988533 255 255 0
0.0590855963528 0.0689361840487 0.247453972697 255 255 0
0.0749761834741 0.186814337969 0.0992777645588 255 255 0
-0.071495488286 0.069852553308 0.249833643436 255 255 0
0.0815894752741 0.176585704088 0.125215530396 255 255 0
0.0567586794496 0.0684798285365 0.247913330793 255 255 0
-0.139348492026 0.0686166808009 0.236071303487 255 255 0
0.0742915943265 0.0675543621182 0.226665019989 255 255 0
0.0981499627233 0.0713574439287 0.125007659197 255 255 0
0.0489175021648 0.189983218908 0.0803578272462 255 255 0
0.154711216688 0.0637161582708 -0.0329992771149 255 255 0
0.153639167547 0.0676034241915 0.163896933198 255 255 0
0.0784977972507 0.0698401033878 0.249441549182 255 255 0
-0.034321654588 0.181575298309 0.170155778527 255 255 0
-0.0482939220965 0.0692071989179 -0.221336692572 255 255 0
0.0193867087364 0.112671762705 0.199470892549 255 255 0
0.0223661568016 0.187062576413 0.193098247051 255 255 0
0.0629381909966 0.189853027463 0.123033061624 255 255 0
0.0426361560822 0.176454037428 0.159546732903 255 255 0
-0.0220961123705 0.0819077342749 0.198875233531 255 255 0
-0.0521903373301 0.0715212598443 -0.259424090385 255 255 0
0.0700029879808 0.150141954422 0.116327159107 255 255 0
0.088281236589 0.0751229003072 0.0940447077155 255 255 0
0.00441513443366 0.173116371036 0.121253676713 255 255 0
0.147198796272 0.0674237012863 -0.166587889194 255 255 0
0.149146109819 0.0705148205161 0.247862398624 255 255 0
0.0307894591242 0.0681764110923 -0.245914295316 255 255 0
0.0302426591516 0.0677139535546 -0.253715515137 255 255 0
-0.154723957181 -0.0135309034958 0.204101681709 255 255 0
-0.0198915023357 0.174907520413 0.097550034523 255 255 0
0.0719143897295 0.191418543458 0.119482241571 255 255 0
-0.0276724714786 0.09355725348 0.196568533778 255 255 0
0.0831987559795 0.0677760392427 0.227562740445 255 255 0
0.0780320316553 0.0670379847288 0.235941275954 255 255 0
0.148002758622 0.0687502101064 -0.128383606672 255 255 0
0.0743919014931 0.187411949039 0.140785783529 255 255 0
0.153248682618 0.0666649490595 -0.00195391895249 255 255 0
-0.0431482829154 0.190850198269 0.0764434412122 255 255 0
-0.0641420260072 0.0830724835396 -0.232170328498 255 255 0
0.0052848928608 0.193129211664 0.0770336389542 255 255 0
-0.0487325116992 0.190784186125 0.0728913471103 255 255 0
0.0208095125854 0.194563120604 0.0572156272829 255 255 0
-0.0105471769348 0.189443066716 0.177932098508 255 255 0
0.0569360181689 0.0678101330996 0.0335144624114 255 255 0
-0.0399878136814 0.17322717607 0.145023033023 255 255 0
0.141497835517 0.0688185244799 0.211171925068 255 255 0
0.0727642774582 0.190880298615 0.12059443444 255 255 0
0.0440509542823 0.175905331969 0.145733103156 255 255 0
-0.156537428498 -0.0424256287515 0.242535293102 255 255 0
0.088716648519 0.0771996304393 0.11485273391 255 255 0
0.0457500331104 0.174717575312 0.108437031507 255 255 0
0.0067959362641 0.190655127168 0.185361459851 255 255 0
0.147719338536 0.0689624920487 -0.131614863873 255 255 0
-0.0409207306802 0.188220739365 0.171568080783 255 255 0
0.030683843419 0.197718948126 0.0647056251764 255 255 0
0.0952992737293 0.0705723613501 0.141811579466 255 255 0
-0.154675066471 0.022835765034 -0.133256167173 255 255 0
-0.141096696258 0.0682488009334 0.119318090379 255 255 0
0.142969354987 0.0687380582094 0.211360394955 255 255 0
-0.0618435367942 0.0796935334802 -0.224465683103 255 255 0
-0.0420908480883 0.190773233771 0.0751437619328 255 255 0
0.0704351589084 0.159234687686 0.122453480959 255 255 0
0.0632989853621 0.0683634355664 0.0326832309365 255 255 0
0.00516734877601 0.190314903855 0.184080630541 255 255 0
-0.00317306886427 0.189629465342 0.047367580235 255 255 0
-0.0373698696494 0.172630190849 0.146120801568 255 255 0
0.0596271157265 0.190281778574 0.0887094512582 255 255 0
-0.0551830865443 0.080349214375 -0.234764024615 255 255 0
0.0474830642343 0.189999520779 0.170920595527 255 255 0
-0.0172943659127 0.196269586682 0.0778981670737 255 255 0
-0.02453773655 0.18965575099 0.185409545898 255 255 0
-0.0538347363472 0.0736396238208 -0.26111382246 255 255 0
0.0636524036527 0.0673411414027 0.205522418022 255 255 0
0.0357927381992 0.19286352396 0.0664742141962 255 255 0
0.062198985368 0.191773161292 0.0949668437243 255 255 0
0.0745262131095 0.188735991716 0.130422741175 255 255 0
0.061857290566 0.191040694714 0.0923141688108 255 255 0
-0.154350399971 -0.0276601649821 0.249042540789 255 255 0
-0.0363996140659 0.0670840516686 0.21482463181 255 255 0
0.087398827076 0.0764839351177 0.145262122154 255 255 0
0.0744391605258 0.182372376323 0.148555323482 255 255 0
0.15413017571 0.0670296251774 0.0168817508966 255 255 0
-0.0302719250321 0.0688707903028 -0.255797028542 255 255 0
0.154899999499 0.0658917054534 0.147732272744 255 255 0
0.154505133629 0.0642163977027 -0.189538359642 255 255 0
0.042247839272 0.19110609591 0.0684788748622 255 255 0
0.0185108110309 0.185740545392 0.194139450788 255 255 0
0.143482789397 0.0680560693145 -0.23002140224 255 255 0
0.0446439161897 0.0690502598882 0.248260721564 255 255 0
0.0696210563183 0.147386327386 0.119724817574 255 255 0
-0.0110196694732 0.0741053819656 0.205842480063 255 255 0
0.0721890553832 0.0676973313093 0.239538654685 255 255 0
0.0113828619942 0.193781614304 0.0560378096998 255 255 0
0.00503593776375 0.173931702971 0.121248707175 255 255 0
0.123199231923 0.0685105025768 0.249705940485 255 255 0
-0.0610277876258 0.183475121856 0.130018308759 255 255 0
0.082628056407 0.17282320559 0.123436182737 255 255 0
0.0710680857301 0.158613666892 0.120289243758 255 255 0
0.0757614523172 0.0669934526086 0.227560967207 255 255 0
0.00454057566822 0.192143723369 0.0767777115107 255 255 0
0.154980540276 0.064759336412 0.147435829043 255 255 0
0.0923993811011 0.0687941089272 0.1597674191 255 255 0
0.0507521405816 0.17590893805 0.149383455515 255 255 0
-0.130207434297 0.0671981424093 -0.0346602462232 255 255 0
0.0498364940286 0.183427318931 0.182177826762 255 255 0
-0.139643982053 -0.0856691002846 0.254768133163 255 255 0
-0.010762440972 0.174727320671 0.10948266834 255 255 0
-0.113494224846 0.0671716332436 0.0981456041336 255 255 0
0.0434149689972 0.0687902867794 0.248963117599 255 255 0
0.00145194551442 0.190953060985 0.0513293817639 255 255 0
0.106566011906 0.0682889744639 0.241734161973 255 255 0
0.0332380197942 0.0675422623754 -0.255340665579 255 255 0
0.132689863443 0.0693548098207 0.247896179557 255 255 0
0.0721513181925 0.0677379071712 0.238527581096 255 255 0
0.15174177289 0.0685281455517 0.0744427442551 255 255 0
0.0962027683854 0.0725606530905 0.120834924281 255 255 0
-0.00646606134251 0.185568705201 0.0428016297519 255 255 0
0.00277989613824 0.174664348364 0.11668844521 255 255 0
-0.0124631365761 0.0737143903971 0.206598743796 255 255 0
0.000982182216831 0.174730375409 0.105215728283 255 255 0
0.0142534375191 0.19384779036 0.0564039722085 255 255 0
0.157551169395 0.0525597929955 0.219104170799 255 255 0
0.101307846606 0.0683337152004 0.242125704885 255 255 0
-0.0295819994062 0.0687652155757 -0.251137495041 255 255 0
0.0156967379153 0.173823922873 0.120655700564 255 255 0
-0.089144654572 0.0710021108389 0.149373754859 255 255 0
0.00957882683724 0.171132981777 0.142808333039 255 255 0
-0.0109015535563 0.174549490213 0.112014763057 255 255 0
-0.143422871828 0.0683774799109 0.185362666845 255 255 0
0.0367886759341 0.176852986217 0.166336670518 255 255 0
-0.0312762781978 0.171192377806 0.136253401637 255 255 0
-0.0473920665681 0.190889313817 0.0709881260991 255 255 0
-0.0252377353609 0.174576610327 0.16700540483 255 255 0
-0.030589941889 0.190477102995 0.0558043532073 255 255 0
0.144495770335 0.0675424858928 -0.230151891708 255 255 0
0.0448309592903 0.0682992786169 -0.238462641835 255 255 0
-0.0241726506501 0.175197333097 0.167895361781 255 255 0
0.0421854630113 0.174969851971 0.101918786764 255 255 0
0.15022213757 0.066948890686 -0.210538730025 255 255 0
-0.0482699051499 0.0730337575078 -0.233069732785 255 255 0
0.0469421669841 0.174996912479 0.102223902941 255 255 0
0.158254951239 0.049899738282 0.219924360514 255 255 0
-0.0325149185956 0.0682388395071 -0.252768456936 255 255 0
0.0330878607929 0.0677771866322 0.0147840203717 255 255 0
-0.000927318586037 0.18983605504 0.0479651987553 255 255 0
0.07968506217 0.178091496229 0.138222649693 255 255 0
0.0407305173576 0.174510955811 0.107944115996 255 255 0
-0.0126179475337 0.193325802684 0.0463091954589 255 255 0
0.00779946567491 0.190773501992 0.0824494734406 255 255 0
-0.00221292045899 0.174084082246 0.156787216663 255 255 0
-0.07446834445 0.0702472552657 -0.258287966251 255 255 0
-0.0454866141081 0.0689170882106 -0.243747919798 255 255 0
0.0698671191931 0.181799441576 0.159546002746 255 255 0
0.0661351382732 0.0671032816172 0.229465410113 255 255 0
0.018090121448 0.177171245217 0.0870260819793 255 255 0
0.0118160480633 0.170747190714 0.135179817677 255 255 0
0.152916401625 0.0661662593484 -0.204464882612 255 255 0
0.0445395857096 0.17556078732 0.101424880326 255 255 0
-0.0420614369214 0.175566226244 0.160465359688 255 255 0
0.157391682267 0.0560864172876 0.217629343271 255 255 0
0.063508681953 0.0668940767646 0.221572414041 255 255 0
0.127525374293 0.0687509998679 0.24851642549 255 255 0
0.0694044306874 0.087112352252 0.166510730982 255 255 0
0.0806360989809 0.0762924179435 0.159219563007 255 255 0
0.148086443543 0.0690389722586 0.224941417575 255 255 0
-0.0705521032214 0.19022461772 0.122117891908 255 255 0
0.0767694190145 0.0674428641796 -0.254760712385 255 255 0
-0.155090972781 -0.0272990316153 0.181528508663 255 255 0
-0.0570610277355 0.069440163672 0.252557873726 255 255 0
-0.0213336776942 0.108900256455 0.198341622949 255 255 0
0.11563642323 0.0686623975635 -0.0219958219677 255 255 0
0.155750289559 0.0554845258594 -0.231003671885 255 255 0
0.0791855677962 0.0676920115948 0.235564023256 255 255 0
-0.0532506294549 0.186530649662 0.0890124440193 255 255 0
-0.0555446371436 0.0691163316369 0.251556843519 255 255 0
0.156164348125 0.0533626936376 -0.0387852564454 255 255 0
0.00698063336313 0.189688399434 0.179348349571 255 255 0
0.0588810816407 0.190607309341 0.0955146029592 255 255 0
0.0709322243929 0.189859762788 0.102516047657 255 255 0
0.153995603323 0.0641062110662 -0.214558944106 255 255 0
0.151562467217 0.0677145943046 -0.0492825247347 255 255 0
0.139612659812 0.0686242878437 0.237458661199 255 255 0
-0.0654972419143 0.18725463748 0.122484706342 255 255 0
0.148767992854 0.0673626214266 -0.207867920399 255 255 0
-0.0653876811266 0.188185289502 0.10901325196 255 255 0
0.0348402075469 0.0679588764906 0.014302752912 255 255 0
0.067660138011 0.193428248167 0.123235367239 255 255 0
0.154243946075 0.0631705224514 -0.173389464617 255 255 0
-0.0522232688963 0.0713895782828 -0.221633404493 255 255 0
0.130832001567 0.0690506771207 0.2482778579 255 255 0
0.118511423469 0.0674015879631 0.226946309209 255 255 0
0.15774461627 0.0556739866734 0.19041582942 255 255 0
-0.0174940992147 0.194704458117 0.0783255249262 255 255 0
0.149109393358 0.0690029859543 0.225941717625 255 255 0
-0.140822261572 -0.0856083109975 0.260425567627 255 255 0
-0.0170011855662 0.172631815076 0.122884608805 255 255 0
0.0858150050044 0.0672304928303 0.226424783468 255 255 0
-0.11500915885 0.0679622143507 0.0889762938023 255 255 0
0.104321502149 0.0682010650635 -0.254856109619 255 255 0
0.0667447522283 0.0669686421752 0.203101187944 255 255 0
-0.135994791985 0.0662379190326 -0.252127319574 255 255 0
0.0949895605445 0.0729341804981 0.114817656577 255 255 0
0.140674069524 0.067725263536 -0.257143348455 255 255 0
0.124559678137 0.0681590512395 0.226869091392 255 255 0
0.0667093396187 0.193485334516 0.129411950707 255 255 0
0.0672726333141 0.0682434663177 -0.253686308861 255 255 0
0.0878563970327 0.0753673911095 0.147477939725 255 255 0
0.0647982209921 0.0668073296547 0.2045661062 255 255 0
-0.0341049060225 0.0691406950355 -0.253418087959 255 255 0
0.0338456220925 0.175061553717 0.113440066576 255 255 0
-0.0291280914098 0.188968256116 0.0503163188696 255 255 0
-0.155272170901 0.02625673078 0.206857800484 255 255 0
-0.0363214090466 0.184369713068 0.0855239033699 255 255 0
-0.0505885444582 0.0664607584476 0.221216484904 255 255 0
0.153484657407 0.0655890852213 -0.170515820384 255 255 0
0.0670671761036 0.187623396516 0.157506287098 255 255 0
0.153356507421 0.0657942593098 -0.157248288393 255 255 0
0.0292965490371 0.174058973789 0.0928092971444 255 255 0
0.155822336674 0.0530357025564 -0.198191896081 255 255 0
0.0724531784654 0.0680909156799 -0.253926515579 255 255 0
-0.05693551898 0.0742024108768 -0.260224223137 255 255 0
0.0798539444804 0.174576878548 0.139465451241 255 255 0
-0.151429399848 -0.0216241907328 0.25513330102 255 255 0
-0.0285347625613 0.0699387788773 -0.257138520479 255 255 0
-0.155631691217 0.0501981265843 0.207124561071 255 255 0
0.140318080783 0.0694846957922 0.0618063472211 255 255 0
-0.057824075222 0.0832646638155 -0.227741584182 255 255 0
-0.0502804853022 0.0701891258359 -0.219974681735 255 255 0
0.0956272482872 0.0711085498333 0.0988706797361 255 255 0
0.0642345249653 0.191647857428 0.0969092771411 255 255 0
0.016493299976 0.187608927488 0.047345649451 255 255 0
0.139164611697 0.068445302546 -0.256734877825 255 255 0
0.0487750843167 0.175170615315 0.101577535272 255 255 0
-0.0131644625217 0.160803005099 0.0408243015409 255 255 0
0.0187753867358 0.167901605368 0.0418534018099 255 255 0
-0.145836427808 0.0683292001486 0.126074850559 255 255 0
-0.1398370713 0.0670570507646 -0.251571506262 255 255 0
0.0070434436202 0.0687976405025 0.251862823963 255 255 0
0.1548294276 0.0660498291254 0.0402303561568 255 255 0
0.0755870044231 0.187276810408 0.137921616435 255 255 0
0.0418235808611 0.174878522754 0.111023463309 255 255 0
-0.0745081081986 0.0684679374099 -0.248765707016 255 255 0
0.0837733671069 0.0789043977857 0.142920181155 255 255 0
0.0408445745707 0.174318820238 0.110802553594 255 255 0
0.0492880567908 0.175496682525 0.149040490389 255 255 0
0.0144247021526 0.174022972584 0.121046259999 255 255 0
0.0490694791079 0.175339460373 0.0997172147036 255 255 0
0.0509221442044 0.0670002475381 0.223635643721 255 255 0
-0.0300062540919 0.190452426672 0.0568373315036 255 255 0
0.0042745009996 0.0671702697873 -0.0433291979134 255 255 0
0.131518661976 0.0682107061148 0.129244312644 255 255 0
0.136497184634 0.0689426362514 0.235268637538 255 255 0
0.0951491221786 0.0711854845285 0.0975253731012 255 255 0
0.0460798405111 0.176500812173 0.15624332428 255 255 0
-0.0355683155358 0.068612486124 -0.25448384881 255 255 0
-0.155169278383 -0.0248402860016 0.160120040178 255 255 0
-0.0362387225032 0.069608412683 -0.254807054996 255 255 0
0.00352942454629 0.110777199268 0.0387647934258 255 255 0
0.0689610913396 0.0679773613811 -0.253889322281 255 255 0
0.0126661555842 0.174462631345 0.109922662377 255 255 0
0.155488908291 0.0629834830761 0.0166586712003 255 255 0
-0.0862917453051 0.0683095827699 -0.252827197313 255 255 0
0.0347441844642 0.175905719399 0.163938209414 255 255 0
0.145122647285 0.0684330761433 -0.210890442133 255 255 0
-0.0244959667325 0.189613088965 0.183725118637 255 255 0
-0.088009186089 0.0673291608691 -0.254202902317 255 255 0
0.142831206322 0.0682769715786 0.218648031354 255 255 0
0.0318245366216 0.0677556023002 -0.247907578945 255 255 0
-0.149047031999 -0.0248329695314 0.256453305483 255 255 0
0.153963640332 0.0647832080722 -0.223541945219 255 255 0
-0.127014249563 0.0674651637673 0.0405524559319 255 255 0
0.0670583546162 0.193223819137 0.115296185017 255 255 0
-0.0194033142179 0.173877343535 0.10358286649 255 255 0
0.135365590453 0.0691650137305 0.0546105317771 255 255 0
0.00384664162993 0.191267430782 0.181306287646 255 255 0
0.0757464170456 0.0679557397962 -0.254261344671 255 255 0
-0.042506378144 0.186523780227 0.0550314895809 255 255 0
0.0676380246878 0.0684086233377 -0.252708017826 255 255 0
0.0273631215096 0.171164810658 0.131227433681 255 255 0
-0.144746229053 0.0672866106033 0.114600412548 255 255 0
0.0269458275288 0.174469992518 0.116443738341 255 255 0
0.153520062566 0.0648367851973 -0.236150875688 255 255 0
0.0310129933059 0.131143763661 0.0444436557591 255 255 0
-0.00709341140464 0.0669332891703 -0.027702299878 255 255 0
0.00630200328305 0.0695907920599 0.251170456409 255 255 0
0.0708473473787 0.190997630358 0.109991230071 255 255 0
0.0702925026417 0.168715134263 0.116816356778 255 255 0
0.100727796555 0.0681849569082 0.24047754705 255 255 0
-0.0449255257845 0.17423902452 0.149229362607 255 255 0
0.158376052976 -0.0112439580262 0.234785273671 255 255 0
0.15586617589 0.0623155757785 0.0381161049008 255 255 0
0.126557692885 0.0685335695744 0.236627936363 255 255 0
-0.107701815665 0.0677238106728 0.111111953855 255 255 0
-0.144928127527 0.06740924716 0.127025455236 255 255 0
-0.141113206744 0.0675579532981 0.112324811518 255 255 0
0.0175214800984 0.186238378286 0.194597408175 255 255 0
-0.1428527385 0.0673278570175 -0.0138238007203 255 255 0
-0.0749915018678 0.067895822227 -0.248018801212 255 255 0
-0.0455715507269 0.189619749784 0.171412184834 255 255 0
0.118523076177 0.0685027837753 0.227030232549 255 255 0
-0.14031471312 0.0682772323489 0.116492815316 255 255 0
-0.05668650195 0.072867654264 -0.259994834661 255 255 0
0.0919008105993 0.068494528532 0.249711021781 255 255 0
0.0937887281179 0.0681564286351 0.155502721667 255 255 0
-0.00691606802866 0.0691187307239 0.251927763224 255 255 0
-0.0335764288902 0.0685587599874 -0.252774685621 255 255 0
0.0655944421887 0.191802367568 0.0999836698174 255 255 0
-0.155040234327 -0.0274690873921 0.202892825007 255 255 0
0.0364944897592 0.189984798431 0.0804509744048 255 255 0
0.154474765062 0.063287474215 -0.0708045512438 255 255 0
0.0454172976315 0.175543248653 0.0950463786721 255 255 0
0.0309415310621 0.0715336352587 0.0286852233112 255 255 0
0.0822315961123 0.0753758698702 0.15904328227 255 255 0
0.0312318317592 0.190463855863 0.080956555903 255 255 0
0.0289021525532 0.073226608336 0.0317014120519 255 255 0
0.0879950374365 0.076291076839 0.102252200246 255 255 0
