ply
format ascii 1.0
comment https://github.com/EricCJoyce
element vertex 488
property float x
property float y
property float z
property uchar red
property uchar green
property uchar blue
end_header
0.105688154697 0.0386144928634 0.233694642782 255 255 0
0.0617136619985 0.037002146244 0.228741854429 255 255 0
-0.0738858282566 0.194787666202 0.1452511549 255 255 0
-0.0437609665096 0.0416769608855 -0.212363034487 255 255 0
0.104509711266 0.038323380053 0.225275933743 255 255 0
0.122829169035 0.0384014472365 0.229512229562 255 255 0
0.103935040534 0.0381209477782 0.238992363214 255 255 0
0.0994660779834 0.0383811891079 0.246185019612 255 255 0
0.0968663915992 0.0399550125003 0.157970488071 255 255 0
0.138350859284 0.0386795811355 0.230614304543 255 255 0
0.0982233732939 0.039908669889 0.158895894885 255 255 0
0.0949260219932 0.0381161496043 0.236514955759 255 255 0
-0.0842756479979 0.0433558113873 0.159146472812 255 255 0
0.0975075885653 0.0373606160283 0.22309987247 255 255 0
-0.087977193296 0.0429906584322 0.139383941889 255 255 0
0.0115807438269 0.200257956982 0.0936019271612 255 255 0
0.037968210876 0.169964626431 0.168884843588 255 255 0
0.0755433663726 0.037718936801 0.235724151134 255 255 0
0.0356403291225 0.169850498438 0.169569119811 255 255 0
0.0138228544965 0.200544655323 0.0908685475588 255 255 0
0.0256420373917 0.2016184479 0.104599647224 255 255 0
0.142030775547 0.0385369695723 0.233322530985 255 255 0
0.123675249517 0.0381979458034 0.243640840054 255 255 0
-0.0567271150649 0.173628717661 0.133769750595 255 255 0
-0.0558129996061 0.173494830728 0.135597705841 255 255 0
0.0836953893304 0.0378509797156 0.224964722991 255 255 0
-0.0215459000319 0.199610427022 0.0803797841072 255 255 0
-0.0655534341931 0.198534995317 0.149638488889 255 255 0
0.0358041785657 0.218401804566 0.0945837125182 255 255 0
0.0468228496611 0.20026858151 0.10338896513 255 255 0
-0.0542866922915 0.173221513629 0.139233887196 255 255 0
-0.0260093230754 0.207318484783 0.103714264929 255 255 0
-0.0504214838147 0.173737764359 0.134263664484 255 255 0
0.114264287055 0.0387777090073 0.24569453299 255 255 0
0.0931083336473 0.037311129272 0.245449095964 255 255 0
0.0357252322137 0.217546969652 0.104591347277 255 255 0
0.128149807453 0.0384757369757 0.230136990547 255 255 0
-0.0235146433115 0.171692043543 0.154330760241 255 255 0
0.100680202246 0.0401821509004 0.144875183702 255 255 0
-0.072307780385 0.196342915297 0.138949975371 255 255 0
0.089457064867 0.0376721657813 0.228683188558 255 255 0
0.0193931609392 0.173246234655 0.136660084128 255 255 0
0.0921282693744 0.037384878844 0.244308143854 255 255 0
0.11330563575 0.0382310897112 0.228832602501 255 255 0
0.0900747105479 0.0413919016719 0.173709973693 255 255 0
0.0588134266436 0.0374569483101 0.245595782995 255 255 0
0.112984977663 0.0383231379092 0.227662399411 255 255 0
-0.0348679125309 0.17178286612 0.184580937028 255 255 0
0.0211448334157 0.200030565262 0.0759539082646 255 255 0
-0.0413747467101 0.203165516257 0.113611139357 255 255 0
0.137429729104 0.0381708294153 0.224821522832 255 255 0
-0.0373169779778 0.171799436212 0.172194734216 255 255 0
0.020851675421 0.173511296511 0.122457318008 255 255 0
0.079357765615 0.196351438761 0.146996632218 255 255 0
-0.0489835590124 0.198420897126 0.0981229022145 255 255 0
-0.0615280121565 0.198872283101 0.146813124418 255 255 0
-0.0582880042493 0.0506816543639 -0.207072421908 255 255 0
-0.0383812598884 0.172704681754 0.161274075508 255 255 0
0.0760925635695 0.0376058407128 0.225702673197 255 255 0
0.0793499499559 0.0371609441936 0.220335900784 255 255 0
-0.0322313867509 0.198416501284 0.194909319282 255 255 0
0.150331139565 0.0385055094957 0.236026108265 255 255 0
-0.0545924790204 0.172892406583 0.154512226582 255 255 0
-0.0580026395619 0.0555459782481 -0.218054026365 255 255 0
-0.0479762405157 0.172988414764 0.132240742445 255 255 0
0.102328166366 0.0396692417562 0.128350809216 255 255 0
0.0368041843176 0.171163856983 0.154486760497 255 255 0
0.0796296522021 0.1964841187 0.145516201854 255 255 0
-0.0580370016396 0.0564501322806 -0.217169299722 255 255 0
0.0937171801925 0.0455511473119 0.137436524034 255 255 0
-0.033289141953 0.172927901149 0.137081310153 255 255 0
0.0579205453396 0.17440700531 0.12237342447 255 255 0
0.150174841285 0.038628552109 0.223035544157 255 255 0
0.0995895266533 0.0414054654539 0.130215153098 255 255 0
-0.01153073553 0.2016171664 0.105662941933 255 255 0
-0.0562010854483 0.173418998718 0.147881284356 255 255 0
-0.122210532427 0.0362342596054 0.140011906624 255 255 0
-0.0331330858171 0.197956055403 0.188555106521 255 255 0
0.109581008554 0.0383180491626 0.249770596623 255 255 0
-0.0113614574075 0.200607195497 0.106057703495 255 255 0
0.0634404048324 0.198339253664 0.119196593761 255 255 0
0.0594243109226 0.173889040947 0.11737075448 255 255 0
0.113235943019 0.0386137589812 0.235826015472 255 255 0
-0.112064644694 0.0387147553265 -0.23132610321 255 255 0
-0.0343603752553 0.0397567711771 -0.221698150039 255 255 0
-0.0266495384276 0.173210784793 0.13562963903 255 255 0
-0.0767041295767 0.192521616817 0.136537477374 255 255 0
0.0687220916152 0.0374749824405 0.236668035388 255 255 0
0.0947133079171 0.0457733049989 0.12360715121 255 255 0
-0.0239859707654 0.173414245248 0.133991613984 255 255 0
0.0683215409517 0.200089424849 0.123040340841 255 255 0
0.00611704913899 0.173164740205 0.191397115588 255 255 0
0.113924942911 0.0387199446559 0.234773948789 255 255 0
0.00358486338519 0.198806598783 0.062370300293 255 255 0
0.0133957024664 0.0440227724612 0.0407555885613 255 255 0
0.0934431254864 0.039985511452 0.168152809143 255 255 0
0.0250560436398 0.173346474767 0.137076616287 255 255 0
0.0787574052811 0.0373640730977 0.229288846254 255 255 0
0.0905850157142 0.037477940321 0.219776377082 255 255 0
0.101636745036 0.0398573987186 0.13745161891 255 255 0
0.0166218969971 0.17346945405 0.133261665702 255 255 0
-0.114326164126 0.036867711693 0.146299913526 255 255 0
0.0793304368854 0.1959990412 0.151123508811 255 255 0
-0.0519660674036 0.0500600636005 -0.209504112601 255 255 0
0.0180934797972 0.0431805551052 0.0404557436705 255 255 0
-0.13999569416 0.0381388403475 -0.0253717824817 255 255 0
0.0629719942808 0.197358936071 0.119064107537 255 255 0
-0.0548305287957 0.173478856683 0.147564321756 255 255 0
0.115245305002 0.0376887321472 0.224238753319 255 255 0
-0.0766963735223 0.192399188876 0.137976154685 255 255 0
-0.122535787523 0.0387854315341 -0.235100314021 255 255 0
-0.0547057725489 0.173396155238 0.148569881916 255 255 0
-0.14178353548 0.0382613651454 -0.0273121837527 255 255 0
0.144276544452 0.0392125621438 0.237530246377 255 255 0
-0.121294140816 0.0387354940176 -0.234165176749 255 255 0
-0.0283937864006 0.173061773181 0.136887505651 255 255 0
-0.0350705385208 0.173135474324 0.145647838712 255 255 0
-0.125003382564 0.0388142876327 -0.236132904887 255 255 0
0.0706098824739 0.0375432930887 0.224894583225 255 255 0
-0.136634320021 0.0380135476589 -0.0229563321918 255 255 0
0.0127424681559 0.198663011193 0.204665705562 255 255 0
0.091333180666 0.0445144958794 0.160432055593 255 255 0
0.0949648618698 0.0376581028104 0.241900146008 255 255 0
-0.0315750427544 0.17341569066 0.131840199232 255 255 0
0.0934440791607 0.0467060394585 0.123809233308 255 255 0
0.0966534689069 0.0436572879553 0.137477338314 255 255 0
-0.042865280062 0.171654999256 0.172329008579 255 255 0
-0.00599133456126 0.199475497007 0.201366767287 255 255 0
0.141549617052 0.0393464379013 0.189180850983 255 255 0
0.142527103424 0.039594322443 0.255564838648 255 255 0
0.0217149741948 0.0394059866667 -0.236320137978 255 255 0
-0.0270438753068 0.0436385758221 0.0453928485513 255 255 0
0.106666907668 0.038795735687 0.25484919548 255 255 0
0.0519548729062 0.173778116703 0.162583246827 255 255 0
-0.00910475011915 0.198142051697 0.204633623362 255 255 0
-0.135197117925 0.0378823876381 -0.0210132002831 255 255 0
-0.0266060680151 0.17228910327 0.180964812636 255 255 0
-0.0770474523306 0.192833796144 0.132778048515 255 255 0
-0.0574133098125 0.172581091523 0.145868688822 255 255 0
-0.00989387184381 0.172350749373 0.196444630623 255 255 0
0.088779322803 0.0372533462942 0.23340664804 255 255 0
-0.0405929610133 0.203663736582 0.10798548907 255 255 0
-0.139939844608 0.035860195756 0.150917455554 255 255 0
0.0852576121688 0.0372561365366 0.243886336684 255 255 0
-0.137786626816 0.0359898097813 0.150002241135 255 255 0
0.0912299305201 0.0433485172689 0.162580624223 255 255 0
0.0909681022167 0.0442760698497 0.16312687099 255 255 0
-0.00596092874184 0.198469743133 0.20167298615 255 255 0
0.0274675302207 0.0394755490124 -0.235518410802 255 255 0
0.0210341159254 0.199473395944 0.070957235992 255 255 0
-0.00895169842988 0.200063869357 0.113110356033 255 255 0
0.102907322347 0.0390371419489 0.13593018055 255 255 0
-0.0207376107574 0.0438630245626 0.0445330142975 255 255 0
-0.00425535161048 0.199610084295 0.200275823474 255 255 0
-0.0447768494487 0.172507151961 0.16179305315 255 255 0
0.0790759399533 0.0373643562198 0.217872172594 255 255 0
-0.139207988977 0.035636652261 0.176751971245 255 255 0
0.0290810484439 0.0393856577575 -0.23400990665 255 255 0
0.0518424659967 0.173963487148 0.160376667976 255 255 0
0.0709011629224 0.0371943041682 0.240574121475 255 255 0
0.103104665875 0.0396139770746 0.140720531344 255 255 0
0.0873507112265 0.0435006432235 0.171207636595 255 255 0
-0.0139702679589 0.202670007944 0.11562949419 255 255 0
0.000443516502855 0.172531351447 0.197232916951 255 255 0
-0.057177811861 0.197638124228 0.128008455038 255 255 0
0.0325013995171 0.0399392694235 -0.228040620685 255 255 0
0.0320567153394 0.172525793314 0.183183461428 255 255 0
-0.0145767442882 0.201466739178 0.118074215949 255 255 0
0.132945120335 0.0385396145284 0.219233259559 255 255 0
-0.00422374578193 0.0383321903646 0.0220478828996 255 255 0
0.0434576869011 0.198868632317 0.0728566199541 255 255 0
-0.0219815447927 0.198029518127 0.202332541347 255 255 0
-0.0772589370608 0.191871792078 0.132502943277 255 255 0
0.027098543942 0.03762575984 0.257701247931 255 255 0
0.11300958693 0.038092404604 0.241879463196 255 255 0
-0.0413428135216 0.172963112593 0.14590613544 255 255 0
-0.0789785012603 0.039002969861 -0.225402399898 255 255 0
0.100266709924 0.0412447974086 0.132290750742 255 255 0
0.0161391608417 0.198952242732 0.0641923770308 255 255 0
-0.064668148756 0.198039263487 0.109692312777 255 255 0
0.0470320247114 0.198563873768 0.0774376541376 255 255 0
-0.022957155481 0.199722468853 0.124679923058 255 255 0
0.0475005321205 0.0413235165179 0.0475093200803 255 255 0
0.0140502443537 0.19841529429 0.207939937711 255 255 0
-0.13761100173 0.0355357900262 0.178384542465 255 255 0
-0.0112440409139 0.17319303751 0.140170574188 255 255 0
0.106012448668 0.0381567552686 0.147133141756 255 255 0
0.0111129879951 0.173462793231 0.143293395638 255 255 0
-0.0701054409146 0.042936630547 -0.211546301842 255 255 0
0.0666631385684 0.200167179108 0.110158771276 255 255 0
0.0949757769704 0.038514636457 0.174338832498 255 255 0
-0.0557298958302 0.172712206841 0.144803598523 255 255 0
-0.141085878015 0.0347087010741 0.244626194239 255 255 0
0.0662885457277 0.192822366953 0.138716056943 255 255 0
0.0723194554448 0.0372279062867 0.229075849056 255 255 0
0.0282881166786 0.172560542822 0.193218693137 255 255 0
0.0846774354577 0.0429322421551 0.177124902606 255 255 0
0.0712746083736 0.197333678603 0.098689801991 255 255 0
0.0410050079226 0.0393300056458 0.023060861975 255 255 0
0.070694103837 0.200364544988 0.120479643345 255 255 0
0.142130449414 0.03873199597 0.242565214634 255 255 0
-0.0504896566272 0.173437580466 0.160772532225 255 255 0
-0.050899066031 0.199048683047 0.124726973474 255 255 0
-0.0345587991178 0.207713246346 0.108180977404 255 255 0
-0.019911641255 0.172663077712 0.132448077202 255 255 0
-0.0238630194217 0.196888670325 0.203686133027 255 255 0
-0.0299711246043 0.19276432693 0.204347848892 255 255 0
0.0720551088452 0.199561998248 0.141781687737 255 255 0
-0.000183062205906 0.0393284074962 -0.161048173904 255 255 0
0.131510645151 0.0385717786849 0.218452438712 255 255 0
0.0128438379616 0.0410233922303 -0.234786450863 255 255 0
0.0843528211117 0.0438609272242 0.177640140057 255 255 0
0.075477398932 0.198792904615 0.15176807344 255 255 0
-0.140205532312 0.0354298651218 0.247915178537 255 255 0
0.0811176374555 0.194816470146 0.130992755294 255 255 0
0.0854474827647 0.0441288053989 0.174804985523 255 255 0
-0.0290367864072 0.0435302108526 0.0461038202047 255 255 0
-0.0651085153222 0.198713958263 0.13616091013 255 255 0
-0.0617941133678 0.191082790494 0.180618673563 255 255 0
0.0356001071632 0.198123887181 0.0678818896413 255 255 0
0.0732284858823 0.199551358819 0.119230724871 255 255 0
0.0366953872144 0.0377271212637 0.259211063385 255 255 0
0.0243078861386 0.0414981730282 0.222983941436 255 255 0
0.0944639220834 0.044466022402 0.150378391147 255 255 0
0.0291260778904 0.173116371036 0.129418328404 255 255 0
-0.0814505964518 0.0369769670069 0.257790446281 255 255 0
0.100562855601 0.040944725275 0.135894805193 255 255 0
0.090695977211 0.0372958108783 0.233447447419 255 255 0
0.0170884151012 0.173128902912 0.183400347829 255 255 0
0.0897681266069 0.0377868935466 0.250430434942 255 255 0
-0.0456072427332 0.19922362268 0.124162741005 255 255 0
0.0588196963072 0.174159243703 0.125533282757 255 255 0
-0.0286768265069 0.207026079297 0.117897830904 255 255 0
0.0706276074052 0.198079869151 0.101255469024 255 255 0
0.0426979325712 0.173216700554 0.120555117726 255 255 0
-0.045538533479 0.173345431685 0.151743263006 255 255 0
-0.00888380594552 0.172577798367 0.194064706564 255 255 0
0.0764273777604 0.0378200560808 0.246289268136 255 255 0
-0.0447193533182 0.0415153950453 -0.233742758632 255 255 0
-0.0390099659562 0.0359543897212 0.247215926647 255 255 0
0.0678738951683 0.198971167207 0.101526319981 255 255 0
-0.0660603269935 0.0411685891449 -0.235675692558 255 255 0
0.0113559970632 0.0472797080874 0.0479796752334 255 255 0
0.0708795562387 0.0378026589751 0.233430176973 255 255 0
0.0619575753808 0.198074370623 0.087378770113 255 255 0
-0.0481136851013 0.197834208608 0.174268573523 255 255 0
0.0263413246721 0.204063639045 0.0876095443964 255 255 0
-0.0516322553158 0.198098570108 0.170177251101 255 255 0
-0.069913931191 0.043638702482 -0.219729885459 255 255 0
-0.0160163957626 0.173353135586 0.125446975231 255 255 0
0.0850013941526 0.0406729578972 0.0771922543645 255 255 0
-0.0036909901537 0.0390228368342 0.00259137456305 255 255 0
-0.0508782863617 0.196913033724 0.126784726977 255 255 0
0.0281335245818 0.197244420648 0.0645979419351 255 255 0
-0.0604897998273 0.198726788163 0.114303588867 255 255 0
-0.00178151554428 0.0417061597109 -0.235407814384 255 255 0
0.053790256381 0.037631560117 0.230631366372 255 255 0
0.0954560786486 0.0451288484037 0.131377503276 255 255 0
0.00262308935635 0.0377441048622 0.260931998491 255 255 0
0.0650204271078 0.0369102098048 0.242253497243 255 255 0
0.00998810213059 0.0408586710691 -0.233656898141 255 255 0
0.007535435725 0.191995456815 0.212414756417 255 255 0
0.131614774466 0.0386826097965 0.217181354761 255 255 0
-0.123388692737 0.0368230268359 0.259304583073 255 255 0
-0.062170971185 0.198228642344 0.108172640204 255 255 0
0.00408781226724 0.193924576044 0.211816325784 255 255 0
-0.0681625306606 0.198060005903 0.14297491312 255 255 0
0.0748571380973 0.199328288436 0.145311802626 255 255 0
-0.132872968912 0.0368185713887 0.256689459085 255 255 0
-0.0189676489681 0.202958509326 0.0993361994624 255 255 0
0.139959916472 0.0387551896274 0.218676790595 255 255 0
0.006681391038 0.195034265518 0.211028620601 255 255 0
0.0744186788797 0.190593168139 0.0981406271458 255 255 0
0.0431760028005 0.201593756676 0.086814917624 255 255 0
0.146365076303 0.0398061387241 -0.0909285768867 255 255 0
0.0522030740976 0.200115799904 0.0951917394996 255 255 0
0.0660759881139 0.196545004845 0.129487022758 255 255 0
0.131061658263 0.0386018231511 0.160459056497 255 255 0
-0.0528865382075 0.0542928352952 -0.21341483295 255 255 0
0.120778918266 0.0386981219053 0.225454702973 255 255 0
0.00389431696385 0.199718222022 0.201299160719 255 255 0
0.0198878701776 0.200457915664 0.093592107296 255 255 0
0.0751063078642 0.03697854653 0.244288310409 255 255 0
0.00179374800064 0.0371567234397 0.256087660789 255 255 0
0.0312465857714 0.200101599097 0.112470336258 255 255 0
0.0321011990309 0.040717933327 0.222827464342 255 255 0
0.132728233933 0.0385706834495 0.149790227413 255 255 0
0.0271747261286 0.172644540668 0.191919997334 255 255 0
-0.0172130186111 0.172362133861 0.18274961412 255 255 0
-0.0630016773939 0.19567039609 0.172463819385 255 255 0
0.0259633883834 0.203136026859 0.0868842080235 255 255 0
0.125907287002 0.0392079129815 0.255424380302 255 255 0
-0.070669054985 0.195787623525 0.157429069281 255 255 0
0.031214158982 0.0395698621869 0.224545493722 255 255 0
0.141751602292 0.0410924963653 -0.199342429638 255 255 0
-0.0759819373488 0.192582592368 0.147528111935 255 255 0
0.130548000336 0.038153309375 0.23459456861 255 255 0
0.00720403669402 0.199079528451 0.0716887712479 255 255 0
-0.141997411847 0.0358302146196 0.254216820002 255 255 0
0.140689983964 0.0388872884214 0.240338027477 255 255 0
-0.00703590316698 0.173597380519 0.125106975436 255 255 0
0.0736201032996 0.199836522341 0.150503665209 255 255 0
-0.0070127681829 0.172885283828 0.133468568325 255 255 0
-0.0449419952929 0.173013240099 0.144305720925 255 255 0
0.065671980381 0.193700030446 0.128245070577 255 255 0
0.0441567078233 0.17379412055 0.137196451426 255 255 0
-0.0183728095144 0.0415100306273 0.222343921661 255 255 0
-0.0284129418433 0.172821506858 0.128198117018 255 255 0
-0.0500976443291 0.173420161009 0.14958409965 255 255 0
-0.0771172046661 0.0406320355833 0.181615144014 255 255 0
-0.0222933012992 0.195956736803 0.192056238651 255 255 0
-0.0636866092682 0.0415111556649 -0.239027455449 255 255 0
0.111614927649 0.0386074110866 0.246947526932 255 255 0
-0.00382195506245 0.199358895421 0.11132158339 255 255 0
0.0974422246218 0.0421185344458 0.144250571728 255 255 0
-0.0282982550561 0.199186384678 0.0719530209899 255 255 0
0.0962128415704 0.044039554894 0.132868230343 255 255 0
0.0180837623775 0.199067607522 0.0633856207132 255 255 0
0.0993381366134 0.0405357964337 0.151851296425 255 255 0
-0.071426987648 0.0417031310499 -0.220451027155 255 255 0
0.00148753018584 0.037284296006 0.254504710436 255 255 0
-0.0368779040873 0.172717779875 0.138537406921 255 255 0
0.148540973663 0.0400272645056 -0.000887763570063 255 255 0
-0.0212556086481 0.0437005870044 0.218836992979 255 255 0
-0.0413674600422 0.0409463495016 -0.23762626946 255 255 0
0.06222397089 0.173884779215 0.141214072704 255 255 0
0.106083534658 0.0386397466063 0.141486167908 255 255 0
-0.0383419916034 0.042946215719 0.21137970686 255 255 0
-0.0278528761119 0.172784924507 0.186299473047 255 255 0
0.0990515649319 0.0408245325089 0.113874174654 255 255 0
0.131574839354 0.0387937016785 0.250375419855 255 255 0
0.00180761970114 0.0401240922511 -0.22733874619 255 255 0
-0.0591726861894 0.0431059189141 0.065612308681 255 255 0
0.133488327265 0.0387267880142 0.217189922929 255 255 0
0.147535949945 0.039945602417 -0.000212255501538 255 255 0
0.0987777486444 0.0397767238319 0.103085339069 255 255 0
0.0933034047484 0.0446527674794 0.113352134824 255 255 0
0.0735710412264 0.196741938591 0.163793191314 255 255 0
0.133637562394 0.0388587713242 0.250192075968 255 255 0
-0.0545027107 0.198484688997 0.164839610457 255 255 0
0.133240744472 0.038481362164 0.243005737662 255 255 0
0.136612936854 0.040649112314 -0.195585399866 255 255 0
0.147188782692 0.039177518338 0.169742971659 255 255 0
-0.0539442449808 0.0469074063003 0.0684912577271 255 255 0
0.106265470386 0.0381672680378 0.250607252121 255 255 0
-0.040749154985 0.198223292828 0.18327768147 255 255 0
0.0047058891505 0.0396833308041 0.0317120850086 255 255 0
0.125592276454 0.0389950424433 0.16581004858 255 255 0
0.0667645260692 0.173618867993 0.134108096361 255 255 0
0.00964156165719 0.0380589477718 0.259211868048 255 255 0
-0.0579698756337 0.0449550636113 0.0672602429986 255 255 0
0.128529161215 0.038444403559 0.219108402729 255 255 0
0.075644209981 0.197229444981 0.112644553185 255 255 0
-0.0388828143477 0.172632545233 0.127470716834 255 255 0
0.0653191581368 0.0376291498542 0.256907969713 255 255 0
-0.0257314424962 0.205595508218 0.10100248456 255 255 0
0.0729604288936 0.198152586818 0.158573061228 255 255 0
0.0088355243206 0.0379793345928 0.259919285774 255 255 0
0.0654729381204 0.0372762642801 0.249588742852 255 255 0
-0.0796995684505 0.0450911335647 0.163078635931 255 255 0
0.0756068155169 0.198128521442 0.113588042557 255 255 0
0.0831864029169 0.0436847321689 0.179379418492 255 255 0
0.145051017404 0.0393461994827 0.167162597179 255 255 0
0.0671231225133 0.037282012403 0.249985381961 255 255 0
0.146984294057 0.0390466675162 0.171220764518 255 255 0
0.0743273422122 0.0378777384758 0.245021849871 255 255 0
-0.0399205945432 0.17255692184 0.128066062927 255 255 0
0.0816122666001 0.0376779548824 0.249414801598 255 255 0
-0.0642014741898 0.0526004955173 -0.219746574759 255 255 0
-0.0462350621819 0.199395731091 0.110463812947 255 255 0
-0.0378249958158 0.197268888354 0.126280635595 255 255 0
-0.10630351305 0.0369782373309 0.15876236558 255 255 0
0.0724924355745 0.198028683662 0.159895211458 255 255 0
0.0823307037354 0.048010405153 0.0938764885068 255 255 0
0.124290302396 0.0383851453662 0.218611523509 255 255 0
-0.0626505240798 0.199199616909 0.142656847835 255 255 0
0.0512555204332 0.173416420817 0.155127435923 255 255 0
0.137908294797 0.0389130152762 0.216247975826 255 255 0
-0.0151094105095 0.172516614199 0.193031772971 255 255 0
0.0351775959134 0.17312784493 0.119482643902 255 255 0
-0.0615875348449 0.0412803441286 0.0633469521999 255 255 0
0.0394043028355 0.194567665458 0.202700689435 255 255 0
0.0647428482771 0.174183353782 0.126916259527 255 255 0
0.0666320770979 0.198694929481 0.150429934263 255 255 0
-0.00471534673125 0.172604948282 0.183415651321 255 255 0
0.106801725924 0.0379970706999 0.149228751659 255 255 0
-0.0731431469321 0.194068387151 0.153899282217 255 255 0
-0.081753693521 0.0427284315228 0.0981993600726 255 255 0
0.122400000691 0.0382883436978 0.219215661287 255 255 0
0.0751588344574 0.0370116606355 0.220908716321 255 255 0
-0.0111959530041 0.0375028066337 0.259876638651 255 255 0
0.123770259321 0.0408103913069 -0.235598400235 255 255 0
0.0540775433183 0.196438297629 0.115861684084 255 255 0
-0.0510194338858 0.198748871684 0.116707898676 255 255 0
-0.0112733552232 0.0426457226276 0.222518384457 255 255 0
0.116464346647 0.0388906747103 0.256490767002 255 255 0
0.0736774802208 0.198346063495 0.15650460124 255 255 0
0.065992154181 0.195243522525 0.133230879903 255 255 0
0.121194630861 0.0395908951759 0.261108309031 255 255 0
-0.0119688231498 0.0373269729316 0.261722326279 255 255 0
-0.0603555515409 0.0561095401645 -0.213825181127 255 255 0
0.138917550445 0.0401883274317 -0.224039554596 255 255 0
0.100623987615 0.0398352257907 0.102918177843 255 255 0
-0.0885052531958 0.0426818244159 0.119853183627 255 255 0
0.149226531386 0.038303874433 0.249584138393 255 255 0
-0.0587528496981 0.0562713593245 -0.215273082256 255 255 0
0.0179791525006 0.174053713679 0.138291120529 255 255 0
-0.0487898997962 0.172740355134 0.157928258181 255 255 0
-0.0613855905831 0.198507919908 0.12812243402 255 255 0
0.0379410944879 0.0434123128653 0.215862363577 255 255 0
0.0252712145448 0.0397131294012 0.0371463820338 255 255 0
0.0139567693695 0.0389616116881 0.0312789529562 255 255 0
-0.0871777683496 0.0438153706491 0.11842944473 255 255 0
0.108736209571 0.0380409173667 0.149258360267 255 255 0
0.0665959343314 0.199162334204 0.0989238321781 255 255 0
0.000358898250852 0.172490045428 0.15168222785 255 255 0
0.0554427728057 0.197488129139 0.115430675447 255 255 0
0.0511756464839 0.200295001268 0.104303188622 255 255 0
-0.0492700114846 0.040741559118 -0.202937245369 255 255 0
0.141346201301 0.0393381044269 0.166215583682 255 255 0
0.0274755507708 0.0475346706808 0.0495217591524 255 255 0
-0.0318786092103 0.201606094837 0.123075917363 255 255 0
-0.0723069161177 0.190427884459 0.162340059876 255 255 0
0.0406772382557 0.198038518429 0.0703115016222 255 255 0
0.0167187303305 0.0372781120241 0.258860945702 255 255 0
0.091457337141 0.038337867707 0.255943775177 255 255 0
0.0450534783304 0.19364400208 0.180618181825 255 255 0
0.137889221311 0.0389391370118 0.250444918871 255 255 0
-0.0891370400786 0.0418105609715 0.118395194411 255 255 0
0.0142965521663 0.0395867489278 -0.160006985068 255 255 0
0.052695017308 0.173777997494 0.151289790869 255 255 0
-0.0360263846815 0.196060568094 0.198478385806 255 255 0
0.0373523794115 0.195999875665 0.116301752627 255 255 0
-0.0613052211702 0.0424920879304 -0.203855410218 255 255 0
-0.00493258191273 0.197958514094 0.11593708396 255 255 0
0.0544122382998 0.198481217027 0.172506406903 255 255 0
-0.0549546219409 0.0372800864279 0.261685788631 255 255 0
-0.0337580367923 0.195948034525 0.200436845422 255 255 0
-0.0837300047278 0.0453159660101 0.147804155946 255 255 0
0.052888803184 0.0368485487998 0.251067906618 255 255 0
0.143153265119 0.038399990648 0.246748313308 255 255 0
-0.0802201330662 0.0415862724185 0.089025862515 255 255 0
0.0816982313991 0.0446478873491 0.179163023829 255 255 0
0.0449921637774 0.201150417328 0.0925274416804 255 255 0
0.0815703645349 0.0380948856473 0.256014049053 255 255 0
0.0676578879356 0.0380589850247 0.206510752439 255 255 0
0.141671463847 0.0401539877057 -0.130838751793 255 255 0
-0.0722936615348 0.189333677292 0.163679465652 255 255 0
0.0518134385347 0.0369455888867 0.249626904726 255 255 0
0.02226559259 0.192578822374 0.209712833166 255 255 0
0.0315720625222 0.198391988873 0.201638415456 255 255 0
0.0774296447635 0.192080691457 0.162054523826 255 255 0
0.135677441955 0.0390620157123 0.213872358203 255 255 0
0.0449737906456 0.201257094741 0.0912705659866 255 255 0
0.0903779491782 0.0446354337037 0.101229846478 255 255 0
0.0145025048405 0.198984116316 0.201393067837 255 255 0
0.134359806776 0.0386061370373 0.241856455803 255 255 0
0.0734343230724 0.0464422628284 0.0752647891641 255 255 0
0.0668369159102 0.197372734547 0.131492123008 255 255 0
-0.0359543040395 0.039878193289 -0.212068140507 255 255 0
-0.134418517351 0.0375754348934 0.258877366781 255 255 0
0.00489322887734 0.173349231482 0.131373658776 255 255 0
0.0579714514315 0.199753060937 0.101070225239 255 255 0
-0.0724527090788 0.0371303446591 0.258521437645 255 255 0
0.0446593202651 0.0414889752865 0.217312708497 255 255 0
0.0283450074494 0.200207024813 0.0759085342288 255 255 0
0.0801115855575 0.0457770489156 0.0849477574229 255 255 0
0.0772677809 0.195289567113 0.158867835999 255 255 0
-0.0864449515939 0.0446336455643 0.120537571609 255 255 0
-0.0445911437273 0.199529156089 0.120863616467 255 255 0
-0.0754125788808 0.0391279421747 0.188239336014 255 255 0
-0.016453769058 0.200438469648 0.0951022431254 255 255 0
0.0655844211578 0.199267908931 0.097400650382 255 255 0
-0.0903107821941 0.0418979227543 0.128542989492 255 255 0
0.0642590522766 0.199590593576 0.104744747281 255 255 0
-0.109230816364 0.036340624094 0.257443606853 255 255 0
-0.0201153289527 0.196891203523 0.204710304737 255 255 0
-0.0993851721287 0.0373840034008 0.259473502636 255 255 0
-0.0832133218646 0.0376767888665 0.180066049099 255 255 0
0.0600245334208 0.173909202218 0.140308856964 255 255 0
-0.143925830722 0.0372783839703 -0.00487835006788 255 255 0
0.0770157203078 0.196687489748 0.153897941113 255 255 0
0.0646738186479 0.19968315959 0.103775419295 255 255 0
0.0525792129338 0.0455709695816 0.0566164925694 255 255 0
0.0991263613105 0.0382558330894 0.167039841413 255 255 0
0.107781089842 0.0382342264056 0.146721601486 255 255 0
-0.072103433311 0.189214512706 0.165131062269 255 255 0
0.0742380842566 0.03724706918 0.217887699604 255 255 0
