ply
format ascii 1.0
comment https://github.com/EricCJoyce
element vertex 352
property float x
property float y
property float z
property uchar red
property uchar green
property uchar blue
end_header
-0.124688483775 -0.122289448977 0.367836654186 255 255 0
-0.135624915361 0.371007323265 0.550288081169 255 255 0
-0.140881001949 0.210963010788 0.381346106529 255 255 0
-0.139218539 0.211881622672 0.382059842348 255 255 0
-0.086011081934 -0.223877519369 0.475069612265 255 255 0
-0.0740275532007 0.433804392815 0.549425065517 255 255 0
-0.0861053839326 0.411676883698 0.575680196285 255 255 0
-0.104310132563 0.398420065641 0.545969665051 255 255 0
-0.0869347527623 0.411274015903 0.574406027794 255 255 0
-0.0751094520092 0.433107107878 0.550609230995 255 255 0
-0.123968631029 -0.123810470104 0.399943590164 255 255 0
-0.138814002275 -0.213360190392 0.543460726738 255 255 0
-0.137644350529 -0.212712660432 0.543942451477 255 255 0
-0.108056202531 0.36352750659 0.489204466343 255 255 0
-0.101700268686 -0.248674303293 0.510940551758 255 255 0
-0.0890854597092 0.398027390242 0.473765105009 255 255 0
-0.0692850276828 0.415546894073 0.597904026508 255 255 0
-0.127731800079 -0.116542764008 0.393201977015 255 255 0
-0.117995545268 0.369174599648 0.524999558926 255 255 0
-0.0892792418599 0.39802595973 0.471931368113 255 255 0
-0.100099153817 0.382269173861 0.479556679726 255 255 0
-0.0172321293503 0.448574960232 0.549556493759 255 255 0
-0.0676693096757 0.422343820333 0.500754535198 255 255 0
-0.077070876956 0.413082093 0.489227443933 255 255 0
-0.100142098963 0.38427990675 0.520709693432 255 255 0
-0.12399931252 -0.229702681303 -0.391651540995 255 255 0
-0.0700175389647 -0.02013605088 0.472116053104 255 255 0
-0.100547008216 0.374962896109 0.596342086792 255 255 0
0.102331638336 0.365068793297 0.608328282833 255 255 0
-0.541927576065 -0.246161848307 -0.605585992336 255 255 0
-0.0111016333103 -0.178652793169 0.518594741821 255 255 0
-0.102679096162 0.369186073542 0.596750199795 255 255 0
-0.141780793667 0.216896191239 0.424169152975 255 255 0
-0.0566181913018 -0.175837978721 0.559820711613 255 255 0
-0.511778414249 -0.267494767904 -0.48724681139 255 255 0
-0.0985564738512 0.404637008905 0.57298541069 255 255 0
-0.0941127687693 0.407164633274 0.573696196079 255 255 0
-0.0722524747252 -0.00901798345149 0.341330170631 255 255 0
-0.00741532258689 0.407446891069 0.726142466068 255 255 0
0.108132183552 0.399635404348 0.615303218365 255 255 0
0.101154513657 0.417170137167 0.632261753082 255 255 0
-0.121118351817 0.225442245603 0.405733048916 255 255 0
-0.00715975370258 0.407714009285 0.724165797234 255 255 0
-0.046674977988 -0.198257312179 0.502465009689 255 255 0
-0.0541265383363 -0.185425117612 0.517924249172 255 255 0
-0.0522217787802 -0.196842774749 0.500736773014 255 255 0
-0.422494351864 -0.23028922081 -0.547462165356 255 255 0
-0.0542752370238 -0.197912022471 0.498771339655 255 255 0
-0.000414722657297 0.411389410496 0.72791659832 255 255 0
0.114281058311 0.385564684868 0.607881128788 255 255 0
-0.088716186583 -0.274563580751 -0.358397930861 255 255 0
-0.0936982706189 -0.224999755621 -0.403774380684 255 255 0
-0.324929326773 -0.233556702733 -0.606442809105 255 255 0
0.0293541885912 0.425683051348 0.626642286777 255 255 0
-0.103813119233 0.373552113771 0.513525724411 255 255 0
-0.0917654186487 -0.199791938066 0.544967889786 255 255 0
-0.0892293155193 -0.270447969437 -0.356634140015 255 255 0
-0.115776538849 0.37649834156 0.574676156044 255 255 0
-0.0497140102088 -0.182853966951 0.517614722252 255 255 0
-0.325595855713 -0.25503385067 -0.631347060204 255 255 0
-0.133526310325 -0.1172336936 0.423990994692 255 255 0
-0.0252659469843 0.434152960777 0.486883610487 255 255 0
-0.0422137342393 -0.18296213448 0.516420245171 255 255 0
-0.335166960955 -0.25234028697 -0.617962121964 255 255 0
-0.117325536907 -0.110717147589 0.396417230368 255 255 0
-0.544708430767 -0.24425624311 -0.514050841331 255 255 0
-0.419271588326 -0.228298351169 -0.54956060648 255 255 0
-0.109269991517 0.329580277205 0.515934765339 255 255 0
0.0456692688167 -0.178125023842 0.529862582684 255 255 0
-0.00810878351331 -0.165536448359 0.554581046104 255 255 0
-0.12275415659 -0.402288228273 -0.515098035336 255 255 0
-0.0915690362453 -0.256995290518 0.221750602126 255 255 0
0.0213867351413 -0.172012120485 0.570214092731 255 255 0
-0.0416315346956 -0.182573214173 0.515556335449 255 255 0
-0.101653702557 -0.226007893682 -0.388443887234 255 255 0
-0.345316469669 -0.249627530575 -0.61044049263 255 255 0
-0.103955328465 0.392420619726 0.573907077312 255 255 0
-0.118182688951 -0.107883021235 0.416119873524 255 255 0
-0.0951536148787 -0.267882704735 0.218040853739 255 255 0
-0.0519934892654 -0.248594611883 -0.436721324921 255 255 0
-0.0974261164665 -0.272313058376 0.494334638119 255 255 0
0.0130347618833 -0.167058989406 0.557840168476 255 255 0
-0.0917163714767 -0.252435147762 0.219654291868 255 255 0
-0.098841547966 -0.383826047182 -0.516933500767 255 255 0
-0.109353512526 0.356814444065 0.588016688824 255 255 0
-0.134753376245 0.203791707754 0.409156501293 255 255 0
-0.130248397589 -0.132491379976 0.408717393875 255 255 0
-0.0914789587259 0.395143032074 0.498619943857 255 255 0
-0.0428752303123 -0.173012003303 0.569845438004 255 255 0
-0.00720471236855 -0.213317513466 -0.442202359438 255 255 0
-0.347412496805 -0.250887721777 -0.609649896622 255 255 0
-0.120154500008 -0.222062215209 0.566998541355 255 255 0
-0.111387342215 0.393489718437 0.559831559658 255 255 0
-0.0488572195172 0.271666973829 0.332412272692 255 255 0
-0.644288599491 -0.375360816717 -0.494176834822 255 255 0
0.00170512415934 -0.167474716902 0.5310074687 255 255 0
-0.0635949894786 -0.194014415145 0.269952893257 255 255 0
-0.115479163826 0.221851557493 0.369523346424 255 255 0
0.198572173715 -0.258661180735 -0.488943845034 255 255 0
-0.0587028414011 -0.267568558455 -0.48614987731 255 255 0
-0.00595935760066 -0.187593743205 -0.332351416349 255 255 0
-0.0935670509934 0.0988400876522 0.446408092976 255 255 0
-0.040658634156 0.448994219303 0.542696177959 255 255 0
0.0214476604015 -0.16982473433 0.534549057484 255 255 0
-0.00889509916306 -0.169382691383 0.535896539688 255 255 0
-0.131250813603 0.363245666027 0.571071743965 255 255 0
-0.404608994722 -0.25857591629 -0.506335556507 255 255 0
-0.106379628181 -0.209090158343 0.5589620471 255 255 0
-0.12319444865 -0.254779845476 0.256299942732 255 255 0
-0.405507862568 -0.259089887142 -0.506434977055 255 255 0
-0.0597081296146 -0.263662278652 -0.485634624958 255 255 0
-0.0327314585447 0.447816073895 0.563325345516 255 255 0
-0.0278704799712 -0.115030951798 0.5016913414 255 255 0
-0.120570451021 -0.226996362209 0.569892942905 255 255 0
-0.0673233792186 0.437258154154 0.556457400322 255 255 0
-0.622737824917 -0.372597396374 -0.483154654503 255 255 0
-0.00779178272933 -0.185287714005 -0.313246488571 255 255 0
-0.0012639623601 -0.16917386651 0.530703186989 255 255 0
0.041810464114 -0.180058091879 0.524905860424 255 255 0
0.00773058924824 -0.172722890973 0.525968372822 255 255 0
-0.125573769212 0.3733266294 0.533319115639 255 255 0
-0.547217488289 -0.240492880344 -0.525582849979 255 255 0
-0.634405255318 -0.278130590916 -0.512996137142 255 255 0
-0.106857471168 -0.253473550081 0.241489365697 255 255 0
-0.0451027229428 0.434332311153 0.518411040306 255 255 0
-0.632618367672 -0.28161495924 -0.513010442257 255 255 0
-0.127586334944 -0.235672205687 0.571525990963 255 255 0
0.0710780844092 -0.194607168436 -0.376263916492 255 255 0
-0.537366092205 -0.244744315743 -0.510463297367 255 255 0
-0.628302514553 -0.380340337753 -0.483069777489 255 255 0
-0.353625237942 -0.25021469593 -0.605473577976 255 255 0
-0.0517440401018 -0.100982241333 0.489338338375 255 255 0
0.19870878756 -0.272797435522 -0.478028595448 255 255 0
-0.122590303421 -0.114742189646 0.412650674582 255 255 0
-0.045995991677 -0.238361567259 -0.473922848701 255 255 0
-0.109604455531 -0.218661114573 0.536884307861 255 255 0
-0.0443730205297 0.434878319502 0.516357421875 255 255 0
-0.0882174894214 -0.19609542191 0.442834466696 255 255 0
-0.123902983963 0.219703748822 0.399250507355 255 255 0
-0.0846281275153 0.415567219257 0.52537125349 255 255 0
-0.0971156284213 0.0737449973822 0.378945887089 255 255 0
-0.371467322111 -0.251715600491 -0.601866006851 255 255 0
0.0947331786156 0.391591578722 0.620158791542 255 255 0
-0.115682035685 0.347103238106 0.463624149561 255 255 0
-0.0747725740075 0.130911782384 0.469518899918 255 255 0
0.130648732185 -0.247302398086 -0.504559576511 255 255 0
-0.0146342786029 -0.184588238597 0.208659663796 255 255 0
-0.108870744705 0.236323669553 0.417701780796 255 255 0
-0.093387760222 -0.273334354162 0.17553986609 255 255 0
-0.0707212463021 -0.219654917717 -0.0474263243377 255 255 0
0.182308092713 -0.263408124447 -0.491302788258 255 255 0
-0.117480479181 0.376192241907 0.56341445446 255 255 0
0.0185952279717 -0.186322972178 -0.342683851719 255 255 0
-0.244990214705 -0.222226262093 -0.552100241184 255 255 0
0.0226565618068 -0.173034057021 -0.374201118946 255 255 0
-0.0805892944336 -0.1124124825 0.477128565311 255 255 0
-0.0946408063173 -0.104588113725 0.362535536289 255 255 0
-0.0963281095028 -0.145167261362 0.344857305288 255 255 0
0.1322363168 -0.25089776516 -0.504644811153 255 255 0
-0.107558399439 -0.112653702497 0.372366815805 255 255 0
-0.11430568248 0.315694391727 0.473118066788 255 255 0
0.0245379339904 -0.169224575162 0.554227352142 255 255 0
-0.622968614101 -0.26351198554 -0.570734083652 255 255 0
-0.0525761581957 -0.172192573547 0.538157105446 255 255 0
-0.0245055109262 -0.223259598017 -0.443292409182 255 255 0
0.0392261408269 -0.191378980875 -0.360669106245 255 255 0
-0.05393929407 -0.172469824553 0.529684364796 255 255 0
-0.0987351536751 0.232230961323 0.358028739691 255 255 0
-0.061415348202 -0.250086814165 -0.502312660217 255 255 0
0.0191681813449 0.44116833806 0.57192158699 255 255 0
-0.0932999998331 -0.223182275891 0.243902206421 255 255 0
0.0383209325373 -0.192187085748 -0.35595485568 255 255 0
0.0335583686829 -0.190861299634 -0.348694294691 255 255 0
-0.0949238613248 0.0616641454399 0.375500380993 255 255 0
-0.0918383523822 -0.222425967455 0.245380401611 255 255 0
-0.0423091948032 0.431625694036 0.590043962002 255 255 0
-0.0936423912644 -0.227770596743 0.241770729423 255 255 0
-0.0669256970286 -0.229572877288 -0.52065962553 255 255 0
0.0643993541598 -0.18926627934 -0.37902367115 255 255 0
-0.00494008697569 -0.183778136969 0.512824594975 255 255 0
0.0801493898034 -0.249486759305 -0.503140330315 255 255 0
-0.0469818525016 -0.180974766612 -0.385973036289 255 255 0
-0.0188593193889 -0.174376085401 -0.375509798527 255 255 0
0.189930438995 -0.24703374505 -0.61470156908 255 255 0
-0.0851438120008 0.396052271128 0.619168460369 255 255 0
-0.128389492631 0.371384114027 0.538518249989 255 255 0
-0.33586153388 -0.236763447523 -0.50832682848 255 255 0
-0.0601247996092 -0.0824405103922 0.476158410311 255 255 0
0.0313502810895 0.434405118227 0.576122403145 255 255 0
-0.0324472151697 -0.166129171848 0.555749058723 255 255 0
-0.0543636567891 0.367506802082 0.713309943676 255 255 0
-0.379170000553 -0.242990896106 -0.595631599426 255 255 0
-0.113848797977 0.383565723896 0.55092227459 255 255 0
-0.0823250263929 -0.246049419045 -0.320346593857 255 255 0
-0.0545372329652 -0.121140509844 0.497077614069 255 255 0
-0.0473530143499 -0.178601920605 0.245123922825 255 255 0
-0.0597595609725 0.387963891029 0.697002053261 255 255 0
-0.107507959008 -0.130650058389 0.446425259113 255 255 0
-0.0623313710093 -0.198947504163 0.513589918613 255 255 0
-0.0483919009566 -0.181003138423 -0.399020045996 255 255 0
-0.0651374980807 -0.228545516729 -0.520542740822 255 255 0
-0.0469626933336 -0.197240784764 0.183315351605 255 255 0
-0.35287553072 -0.258406639099 -0.612303435802 255 255 0
-0.0620516575873 -0.245719760656 -0.505896627903 255 255 0
-0.0279262624681 -0.168383255601 0.561556100845 255 255 0
-0.0359801054001 0.435512155294 0.586309790611 255 255 0
-0.0842769294977 0.411552876234 0.5203769207 255 255 0
-0.255660951138 -0.222612559795 -0.573104262352 255 255 0
-0.108842238784 -0.122408919036 0.446835905313 255 255 0
-0.0725187286735 -0.218118086457 0.209420010448 255 255 0
-0.115858688951 0.378808885813 0.535598516464 255 255 0
-0.326197117567 -0.221277058125 -0.522547841072 255 255 0
-0.0710797533393 -0.213222488761 0.216971263289 255 255 0
-0.0462931506336 -0.185729652643 -0.375459849834 255 255 0
-0.237618342042 -0.222853407264 -0.545925199986 255 255 0
0.18379932642 0.37988486886 0.619560480118 255 255 0
-0.036562319845 -0.133893400431 0.506297051907 255 255 0
-0.122179888189 -0.256846368313 -0.373705774546 255 255 0
-0.100501596928 0.39713793993 0.528840124607 255 255 0
-0.619353234768 -0.342747181654 -0.496066093445 255 255 0
0.180131480098 0.386775374413 0.619983494282 255 255 0
-0.100772805512 -0.249212890863 0.378984123468 255 255 0
-0.109408274293 0.304435819387 0.481982529163 255 255 0
0.0015220962232 -0.214583367109 -0.562226772308 255 255 0
-0.0902896001935 -0.274602770805 -0.0732861086726 255 255 0
-0.0601147562265 -0.27764543891 -0.482464164495 255 255 0
-0.10266213119 -0.242890298367 0.405867934227 255 255 0
-0.0445094369352 -0.193385794759 0.142948284745 255 255 0
-0.0926125645638 -0.276054918766 0.00339703634381 255 255 0
0.0413838662207 0.415506660938 0.611058413982 255 255 0
-0.0779685154557 -0.0647398978472 0.461089909077 255 255 0
-0.0481901653111 -0.179180502892 0.246687084436 255 255 0
-0.0692881345749 -0.254710167646 -0.501165151596 255 255 0
-0.0619633346796 -0.194836303592 -0.374763280153 255 255 0
-0.0832942798734 -0.226931944489 0.327072054148 255 255 0
0.199905589223 -0.245077908039 -0.626375615597 255 255 0
0.0111741479486 -0.183659881353 0.290907680988 255 255 0
0.0337534546852 0.431237369776 0.576769053936 255 255 0
-0.128056615591 -0.268667757511 -0.383910775185 255 255 0
-0.0979355797172 -0.255735993385 0.364510029554 255 255 0
-0.0844840854406 0.41153177619 0.518740475178 255 255 0
-0.0475914925337 -0.121744096279 0.498777240515 255 255 0
-0.615232288837 -0.270752310753 -0.601244986057 255 255 0
-0.083147265017 -0.234917581081 -0.362931847572 255 255 0
0.0790785998106 -0.240795761347 -0.507658839226 255 255 0
-0.0921474546194 -0.242123290896 0.34418040514 255 255 0
-0.0840204060078 -0.211883053184 -0.378596395254 255 255 0
0.170526504517 -0.215876936913 -0.568175911903 255 255 0
0.00555553799495 -0.182848438621 0.223599031568 255 255 0
0.214059457183 0.421180665493 0.749495208263 255 255 0
-0.057840295136 0.43247872591 0.576795756817 255 255 0
-0.13621494174 -0.120863258839 0.383479624987 255 255 0
-0.0661316365004 -0.214046090841 -0.0963783413172 255 255 0
-0.0895937755704 0.132224068046 0.455465108156 255 255 0
-0.0910863354802 -0.266812235117 0.0146313589066 255 255 0
-0.0863434523344 -0.202818959951 0.572221159935 255 255 0
-0.56010478735 -0.236990705132 -0.557388424873 255 255 0
-0.129717677832 0.222216010094 0.376762896776 255 255 0
-0.0676427781582 -0.214025899768 0.188346460462 255 255 0
-0.104442380369 0.122122034431 0.405646681786 255 255 0
-0.152058020234 -0.280674993992 0.558512508869 255 255 0
-0.655914008617 -0.292841881514 -0.550275981426 255 255 0
-0.0942247062922 -0.253546506166 0.288912564516 255 255 0
-0.336757361889 -0.251528978348 -0.496880471706 255 255 0
-0.10304260999 0.127429261804 0.406000554562 255 255 0
-0.110744804144 -0.216466277838 0.56446659565 255 255 0
0.0108023164794 -0.183988913894 0.292795807123 255 255 0
-0.375717282295 -0.245858952403 -0.515004098415 255 255 0
-0.0700455456972 -0.214856907725 0.179084375501 255 255 0
-0.0691235587001 -0.210154145956 0.184875443578 255 255 0
-0.025536255911 0.434831082821 0.473054677248 255 255 0
0.0431332662702 -0.218965247273 -0.540034770966 255 255 0
-0.465741246939 -0.23195463419 -0.560005843639 255 255 0
0.0906022042036 0.435428231955 0.677851438522 255 255 0
-0.255729466677 -0.234920844436 -0.594448566437 255 255 0
-0.335521817207 -0.255431413651 -0.495251953602 255 255 0
-0.654627740383 -0.292038410902 -0.551261246204 255 255 0
-0.0944510698318 0.06246618554 0.441627770662 255 255 0
-0.0384352989495 0.380683898926 0.722519159317 255 255 0
0.0437426790595 0.413607567549 0.74002879858 255 255 0
-0.0826786532998 -0.105535157025 0.343128979206 255 255 0
-0.480324119329 -0.266455203295 -0.50249171257 255 255 0
0.0990673303604 0.419947654009 0.64111083746 255 255 0
-0.0866114422679 -0.250991642475 0.0200106967241 255 255 0
-0.0563158243895 0.444398134947 0.54365503788 255 255 0
0.0954535752535 0.422014325857 0.647106528282 255 255 0
0.0959835499525 -0.223409429193 0.564453542233 255 255 0
-0.100062415004 -0.271111130714 0.374257683754 255 255 0
0.0446156188846 0.414071261883 0.74071264267 255 255 0
-0.0829593613744 -0.1911277771 0.560689508915 255 255 0
-0.152361154556 -0.223295629025 -0.545052409172 255 255 0
0.104135505855 0.435733944178 0.652745723724 255 255 0
-0.0980791896582 -0.271819859743 0.330128312111 255 255 0
0.113447569311 0.434642314911 0.760103583336 255 255 0
-0.386820286512 -0.234404072165 -0.586609840393 255 255 0
-0.0143519174308 0.431497365236 0.635516405106 255 255 0
-0.0244837813079 0.431491047144 0.61338108778 255 255 0
-0.0895473361015 -0.255865931511 0.297302037477 255 255 0
-0.111094333231 -0.256138771772 -0.503822147846 255 255 0
0.180282384157 -0.245951414108 -0.500467002392 255 255 0
0.227250054479 -0.207541435957 -0.536978363991 255 255 0
-0.0550107732415 -0.200470760465 -0.36451330781 255 255 0
0.0406987965107 0.426346510649 0.724399805069 255 255 0
-0.118810378015 0.341366052628 0.52871131897 255 255 0
-0.574376821518 -0.248071610928 -0.585457742214 255 255 0
0.0056508560665 -0.206950932741 -0.424472391605 255 255 0
-0.0278030820191 0.381804913282 0.730978369713 255 255 0
-0.0789710059762 0.222346365452 0.486639946699 255 255 0
-0.0997034981847 -0.256773918867 0.364762634039 255 255 0
-0.0228283237666 0.432308763266 0.615699350834 255 255 0
-0.0709796100855 -0.215153545141 0.100159630179 255 255 0
0.109372287989 -0.231784746051 -0.516359269619 255 255 0
0.106836482882 -0.238033920527 -0.511993646622 255 255 0
-0.0614797696471 -0.209926709533 -0.344709724188 255 255 0
-0.0914897918701 0.406802386045 0.529957592487 255 255 0
-0.0927295833826 0.406062334776 0.53033643961 255 255 0
-0.430197060108 -0.259897321463 -0.505070984364 255 255 0
-0.0860037654638 -0.250706881285 -0.203542545438 255 255 0
-0.0408525727689 0.442556887865 0.572629392147 255 255 0
0.0220003984869 0.428251087666 0.588476777077 255 255 0
-0.646207034588 -0.289531260729 -0.586972773075 255 255 0
-0.0608905777335 -0.209497854114 -0.346168667078 255 255 0
-0.102727815509 -0.105693429708 0.378215223551 255 255 0
0.188704028726 -0.236281007528 -0.505105912685 255 255 0
-0.597337424755 -0.280179560184 -0.498132169247 255 255 0
-0.138103738427 0.201546058059 0.414253771305 255 255 0
-0.137142643332 0.203356251121 0.393468856812 255 255 0
0.0995493680239 -0.226173326373 0.569552898407 255 255 0
0.0329955257475 0.420015841722 0.605692982674 255 255 0
-0.109348997474 -0.225177675486 -0.401084691286 255 255 0
0.0296840984374 0.422632783651 0.605467736721 255 255 0
-0.0718774273992 -0.218093365431 -0.159274235368 255 255 0
-0.0248331092298 -0.12707722187 0.50577890873 255 255 0
-0.647690176964 -0.294534742832 -0.593159198761 255 255 0
-0.0999157056212 -0.209518238902 0.403361558914 255 255 0
0.00541253946722 -0.183799117804 -0.361108422279 255 255 0
-0.0858645439148 -0.250788420439 -0.200856730342 255 255 0
-0.0628190934658 -0.211324036121 -0.0348468013108 255 255 0
0.078886128962 0.374456435442 0.602435171604 255 255 0
0.0248007383198 -0.176482945681 -0.371378153563 255 255 0
-0.0986632928252 0.192285329103 0.346715718508 255 255 0
-0.0450028628111 0.386408030987 0.714474141598 255 255 0
-0.0920994728804 -0.275170922279 0.14343868196 255 255 0
0.0275451596826 -0.174575567245 -0.376678287983 255 255 0
-0.113363854587 -0.248252749443 -0.506492257118 255 255 0
-0.0939665138721 -0.0636982619762 0.440240323544 255 255 0
-0.0901168957353 -0.25101146102 0.21139395237 255 255 0
-0.0990172177553 -0.273620277643 0.350972115993 255 255 0
-0.0656431242824 -0.214289262891 -0.012779279612 255 255 0
-0.0855583101511 -0.251080811024 -0.193075448275 255 255 0
-0.146334767342 -0.219518989325 -0.549868285656 255 255 0
0.046782143414 0.425438284874 0.722880482674 255 255 0
