ply
format ascii 1.0
comment https://github.com/EricCJoyce
element vertex 227
property float x
property float y
property float z
property uchar red
property uchar green
property uchar blue
end_header
-0.338270157576 -0.00249333004467 -0.0578529872 0 0 255
-0.0444759093225 -0.000782155140769 0.129535138607 0 0 255
-0.0136888027191 -0.00188810599502 0.129972204566 0 0 255
-0.0104241706431 -0.0016474701697 0.126718506217 0 0 255
0.435833841562 -2.45651845034e-05 0.196067005396 0 0 255
0.278411865234 -0.00435258820653 -0.0638872310519 0 0 255
0.161489203572 -0.00527946883813 -0.0731168836355 0 0 255
0.158239036798 -0.00519320322201 -0.119908981025 0 0 255
-0.102272428572 -0.00803390145302 -0.347683876753 0 0 255
0.276875913143 -0.00445621646941 -0.0625666081905 0 0 255
-0.0474741794169 -0.000735961308237 0.126664668322 0 0 255
-0.341938912868 -0.00237656896934 -0.0626861378551 0 0 255
0.216228947043 -0.00473604165018 -0.0940050780773 0 0 255
-0.0087753906846 -0.00204023695551 0.136352032423 0 0 255
0.243188157678 -0.00317169958726 -0.0687161386013 0 0 255
0.213817775249 -0.00545683642849 -0.12258130312 0 0 255
-0.106748126447 -0.00908834580332 -0.370223402977 0 0 255
-0.341908037663 -0.00266924826428 -0.0562495701015 0 0 255
0.210044369102 -0.00557223893702 -0.122388750315 0 0 255
0.217279985547 -0.00474194670096 -0.0932244360447 0 0 255
-0.0484119988978 -0.00122327590361 0.136768788099 0 0 255
-0.0455449558794 -0.00120458391029 0.138135224581 0 0 255
0.157023504376 -0.00520384777337 -0.120428673923 0 0 255
0.212157458067 -0.00552898272872 -0.122028030455 0 0 255
0.278978228569 -0.00356185133569 -0.0808744877577 0 0 255
-0.00869468972087 -0.00212013046257 0.13815382123 0 0 255
-0.338893741369 -0.00258442526683 -0.0562419369817 0 0 255
-0.00798323471099 -0.00155787088443 0.126266181469 0 0 255
-0.0452069602907 -0.000602648593485 0.125146254897 0 0 255
0.206349208951 -0.00423988886178 -0.0681181177497 0 0 255
0.157693237066 -0.00356043572538 -0.0702742785215 0 0 255
0.277912467718 -0.00431048497558 -0.0651198029518 0 0 255
-0.00894738733768 -0.00151050370187 0.124630242586 0 0 255
0.435522705317 0.00180476950482 0.19865013659 0 0 255
0.15925848484 -0.00355763244443 -0.0693659931421 0 0 255
-0.289630204439 -0.00285463780165 -0.0626825913787 0 0 255
0.249817326665 -0.00480386102572 -0.0717082172632 0 0 255
0.242741763592 -0.00313010718673 -0.0699046850204 0 0 255
-0.103080682456 -0.00818250421435 -0.344926297665 0 0 255
0.258281886578 -0.00485860509798 -0.108150541782 0 0 255
-0.0360834673047 -0.00893297698349 -0.37273645401 0 0 255
-0.00772167835385 -0.00201304466464 0.136408641934 0 0 255
-0.104822836816 -0.00821620691568 -0.345266669989 0 0 255
-0.0474604815245 -0.00122066924814 0.137301146984 0 0 255
0.170693531632 -0.00324392714538 -0.0691598504782 0 0 255
-0.343643218279 -0.0024967645295 -0.0611065849662 0 0 255
0.260663509369 -0.0044166459702 -0.116365641356 0 0 255
0.2621781528 -0.00435428880155 -0.116794519126 0 0 255
0.246260195971 -0.00430621113628 -0.127710729837 0 0 255
0.207797884941 -0.00442746747285 -0.105994552374 0 0 255
-0.102121569216 -0.00895590335131 -0.370261013508 0 0 255
0.27804479003 -0.00364552577958 -0.0796181038022 0 0 255
0.198579370975 -0.00576025992632 -0.125369280577 0 0 255
-0.0377726219594 -0.00908604636788 -0.370426684618 0 0 255
-0.338603168726 -0.0028845416382 -0.0494813807309 0 0 255
0.248661845922 -0.00419695675373 -0.128618359566 0 0 255
0.203913867474 -0.0043339622207 -0.0675642415881 0 0 255
0.260770827532 -0.00351087842137 -0.0932726189494 0 0 255
0.269120633602 -0.0038116495125 -0.0815045759082 0 0 255
0.172363877296 -0.00422333879396 -0.0895367562771 0 0 255
0.280627131462 -0.00426492514089 -0.0644368901849 0 0 255
0.202115431428 -0.00400671875104 -0.118740722537 0 0 255
-0.288152247667 -0.00276629859582 -0.0637039020658 0 0 255
0.254851907492 -0.0042140847072 -0.124407716095 0 0 255
0.172556102276 -0.00511049991474 -0.0699652582407 0 0 255
0.276888459921 -0.00392130343243 -0.0742876529694 0 0 255
0.245582327247 -0.00428697839379 -0.128552421927 0 0 255
0.269308269024 -0.00420626113191 -0.0727358385921 0 0 255
0.241459041834 -0.00457858433947 -0.124713093042 0 0 255
0.26824465394 -0.00393137149513 -0.0794222131371 0 0 255
-0.017111863941 -0.00182567082811 0.126482442021 0 0 255
0.175174251199 -0.00486123841256 -0.0738086253405 0 0 255
0.26228043437 -0.00345269101672 -0.0936131775379 0 0 255
0.249144971371 -0.00456311181188 -0.120290502906 0 0 255
0.157007426023 -0.00566027453169 -0.110430754721 0 0 255
-0.340830117464 -0.00227731349878 -0.0641755312681 0 0 255
0.157503217459 -0.0053448388353 -0.117040008307 0 0 255
-0.291437268257 -0.00288516585715 -0.0631327927113 0 0 255
-0.33322173357 -0.00247061485425 -0.0552232861519 0 0 255
0.197914198041 -0.00442082248628 -0.0693768039346 0 0 255
0.247396543622 -0.00292804092169 -0.0714514106512 0 0 255
0.509430289268 -0.00980990659446 0.113127604127 0 0 255
-0.0432504341006 -0.00056148431031 0.125455826521 0 0 255
-0.340639680624 -0.00277297897264 -0.0531892850995 0 0 255
0.172313258052 -0.00506218755618 -0.0711750388145 0 0 255
0.50323843956 -0.00997613649815 0.112936280668 0 0 255
0.274829566479 -0.00397191289812 -0.0744535699487 0 0 255
-0.0439789555967 -0.00116308883298 0.138195604086 0 0 255
0.201038599014 -0.00438732653856 -0.0681755319238 0 0 255
0.274076551199 -0.00367791345343 -0.0813664868474 0 0 255
0.174304202199 -0.00412923935801 -0.0903979018331 0 0 255
-0.331753700972 -0.00407013529912 -0.0621286779642 0 0 255
0.441852599382 -0.00315958424471 0.182762339711 0 0 255
0.209536656737 -0.00370700214989 -0.077827706933 0 0 255
-0.343735694885 -0.00270928232931 -0.0565040931106 0 0 255
0.278786301613 -0.00403866777197 -0.070538431406 0 0 255
0.16378159821 -0.00456361845136 -0.0873927772045 0 0 255
0.173705905676 -0.00485079316422 -0.0749473646283 0 0 255
0.206750541925 -0.00443173712119 -0.106549821794 0 0 255
0.280414909124 -0.00399883743376 -0.0704027637839 0 0 255
0.169631764293 -0.00481475610286 -0.0782616958022 0 0 255
0.239817067981 -0.00468313181773 -0.123438023031 0 0 255
0.162405997515 -0.0040914923884 -0.0985971391201 0 0 255
-0.0636755824089 -0.00860224291682 -0.354196220636 0 0 255
-0.0483128800988 -0.00943653844297 -0.369271874428 0 0 255
0.205661177635 -0.00347732240334 -0.0852648615837 0 0 255
0.277503669262 -0.00380193535239 -0.0765238255262 0 0 255
-0.0572958551347 -0.00948062073439 -0.373870700598 0 0 255
-0.1059114784 -0.00902602635324 -0.371071487665 0 0 255
0.279166519642 -0.00372010818683 -0.0772877931595 0 0 255
0.209106788039 -0.0038867352996 -0.117040023208 0 0 255
-0.0375546440482 -0.00821236148477 -0.346561640501 0 0 255
0.1603089571 -0.00416291737929 -0.0983302667737 0 0 255
0.198379173875 -0.00570584088564 -0.126686528325 0 0 255
-0.0384322591126 -0.00875759031624 -0.378037303686 0 0 255
0.430544316769 -0.000241317786276 0.197542503476 0 0 255
0.435669034719 -7.98493783805e-05 0.197177097201 0 0 255
0.258791685104 -0.00447998289019 -0.116136588156 0 0 255
0.198414608836 -0.00582590326667 -0.124032013118 0 0 255
0.430535554886 -0.000182646588655 0.196250617504 0 0 255
0.440447032452 -0.00322382664308 0.183300122619 0 0 255
-0.0960707068443 -0.00933621637523 -0.35817322135 0 0 255
0.265974730253 -0.00403841398656 -0.0784814581275 0 0 255
-0.0492300465703 -0.00118488376029 0.135420143604 0 0 255
-0.0354652106762 -0.00821028929204 -0.345312535763 0 0 255
0.163888931274 -0.0042507913895 -0.0941855087876 0 0 255
0.157804355025 -0.00479879416525 -0.128826335073 0 0 255
-0.196272358298 0.00903971400112 -0.265644729137 0 0 255
-0.288213908672 -0.00283265323378 -0.0622871741652 0 0 255
0.194243311882 -0.00352495652623 -0.0912943929434 0 0 255
0.506124436855 -0.0170963797718 -0.415343910456 0 0 255
0.171939864755 -0.00486554391682 -0.0757181048393 0 0 255
0.163901850581 -0.00418589496985 -0.09560046345 0 0 255
0.155651003122 -0.00459820963442 -0.0916716605425 0 0 255
-0.0485886633396 -0.000816910178401 0.127749115229 0 0 255
0.264957994223 -0.00336911110207 -0.0937869176269 0 0 255
0.195657908916 -0.00589369423687 -0.124253518879 0 0 255
-0.0490741431713 -0.000910116941668 0.129492044449 0 0 255
0.436711460352 -0.00142646231689 0.184462621808 0 0 255
0.15687957406 -0.00500081898645 -0.082082644105 0 0 255
-0.0483227334917 -0.0092896707356 -0.372498273849 0 0 255
0.291175365448 0.000758746522479 0.132154837251 0 0 255
0.205028563738 -0.00466777011752 -0.102441288531 0 0 255
0.460866838694 -0.00206604646519 0.342112839222 0 0 255
-0.332557588816 -0.0021673804149 -0.0614606961608 0 0 255
0.279882758856 -0.0057290000841 -0.118569768965 0 0 255
0.166967839003 -0.00468931300566 -0.0826626718044 0 0 255
0.462480455637 -0.00190252321772 0.33952704072 0 0 255
0.209243535995 -0.00399184180424 -0.114650674164 0 0 255
0.27818363905 -0.00201387587003 0.0991260409355 0 0 255
-0.0414509251714 -0.00810401700437 -0.351351201534 0 0 255
0.255640566349 -0.00386288855225 -0.0887327194214 0 0 255
-0.287807315588 -0.00287711713463 -0.0610603094101 0 0 255
0.206329882145 -0.00409678230062 -0.114154860377 0 0 255
0.251696825027 -0.00434243120253 -0.0806613564491 0 0 255
0.2806224823 -0.00437840959057 -0.104838386178 0 0 255
0.19856120646 -0.00398878986016 -0.0784489512444 0 0 255
0.17153480649 -0.00476471614093 -0.0781798586249 0 0 255
-0.0946924835443 -0.009152892977 -0.361338973045 0 0 255
-0.314604222775 -0.00374736753292 -0.0585808418691 0 0 255
0.435232311487 0.00137846334837 0.207817643881 0 0 255
-0.0245014745742 -0.00190200831275 0.123577997088 0 0 255
0.256670713425 -0.0047948108986 -0.110547535121 0 0 255
-0.0914671868086 -0.00774419587106 -0.34734171629 0 0 255
0.246778011322 -0.00423335237429 -0.128987461329 0 0 255
0.280210733414 -0.00192292360589 0.098387658596 0 0 255
0.438412874937 -0.00135637365747 0.183979928493 0 0 255
0.279677897692 -0.00407630903646 -0.112047642469 0 0 255
0.517955362797 -0.00872259307653 -0.377187848091 0 0 255
0.282200962305 -0.00204203766771 0.102232478559 0 0 255
0.44606679678 -0.00433220621198 0.211084842682 0 0 255
0.518692851067 -0.0088263489306 -0.374455899 0 0 255
0.518764555454 -0.00888335332274 -0.373161554337 0 0 255
0.289020329714 -0.00172533141449 0.0995131731033 0 0 255
-0.0722753256559 -0.00889041274786 -0.353205621243 0 0 255
-0.295147955418 -0.00309980567545 -0.0607254467905 0 0 255
0.288311362267 -0.00171057810076 0.0987504273653 0 0 255
0.278261899948 -0.00498040346429 -0.135988131166 0 0 255
0.209653988481 -0.00515733240172 -0.0888411700726 0 0 255
0.247385144234 -0.00339528196491 -0.104100398719 0 0 255
-0.0373472757638 -0.000554677564651 0.128963902593 0 0 255
0.258693158627 -0.00330048659816 -0.0991730093956 0 0 255
0.195576891303 -0.00407651811838 -0.0783743113279 0 0 255
0.529899179935 0.0112497322261 0.135799646378 0 0 255
-0.0164118576795 -0.00197199871764 0.130124598742 0 0 255
0.161513566971 -0.00468027824536 -0.0862399935722 0 0 255
-0.0203035157174 -0.0022433695849 0.133663743734 0 0 255
-0.0866989716887 -0.00757374381647 -0.348124980927 0 0 255
0.5286013484 -0.00185534846969 0.122136607766 0 0 255
0.202531561255 -0.00384762720205 -0.0790843144059 0 0 255
0.507127165794 -0.0101159457117 0.118411116302 0 0 255
0.276824772358 -0.00526814023033 -0.130569443107 0 0 255
0.259901046753 -0.00332282320596 -0.0979349017143 0 0 255
0.208158642054 -0.0040460685268 -0.114133819938 0 0 255
0.207496926188 -0.00521313911304 -0.0889539271593 0 0 255
0.527440309525 -0.00187959021423 0.121948823333 0 0 255
0.209514886141 -0.00529324635863 -0.0859472155571 0 0 255
0.280356705189 -0.00483373878524 -0.0950192287564 0 0 255
0.279901027679 -0.00414729211479 -0.11035297811 0 0 255
0.258086442947 -0.00455472292379 -0.11493472755 0 0 255
0.273016273975 -0.00421519111842 -0.0702427327633 0 0 255
-0.223878622055 0.010213477537 -0.265597999096 0 0 255
0.2878485322 0.000672108551953 0.131993368268 0 0 255
0.521749377251 0.011073560454 0.134613245726 0 0 255
0.430831104517 0.0015618869802 0.201069012284 0 0 255
0.201175734401 -0.00455529382452 -0.107294544578 0 0 255
0.511684298515 -0.00777408247814 0.327206969261 0 0 255
0.198192939162 -0.00505914958194 -0.0980947092175 0 0 255
-0.0592441782355 -0.0082433084026 -0.359320908785 0 0 255
0.444751411676 -0.00437908479944 0.168410852551 0 0 255
0.509235918522 -0.0105367731303 0.128944888711 0 0 255
0.249327376485 -0.0051119858399 -0.108142577112 0 0 255
0.256082057953 -0.00432144058868 -0.12129162997 0 0 255
0.507176876068 -0.017141468823 -0.413703233004 0 0 255
0.198848262429 -0.00376041419804 -0.0832786038518 0 0 255
0.202830210328 -0.00455296458676 -0.106320567429 0 0 255
0.21020527184 -0.00499072577804 -0.0921527221799 0 0 255
0.156969457865 -0.00434002187103 -0.0965159758925 0 0 255
0.170451104641 -0.00500518130139 -0.0735786929727 0 0 255
0.526949942112 -0.0061095575802 0.171506747603 0 0 255
0.439577043056 -0.00435343151912 0.164642572403 0 0 255
0.513300418854 -0.00799720175564 0.118665888906 0 0 255
0.202431410551 -0.00485635688528 -0.0999152958393 0 0 255
0.509448051453 -0.00787472445518 0.328028231859 0 0 255
0.462473750114 -0.00327977561392 0.326834410429 0 0 255
0.287265568972 0.000715950620361 0.130670890212 0 0 255
0.446762979031 -0.00412702094764 0.207017153502 0 0 255
