ply
format ascii 1.0
comment https://github.com/EricCJoyce
element vertex 57
property float x
property float y
property float z
property uchar red
property uchar green
property uchar blue
end_header
0.126109138131 0.106677740812 0.213365495205 0 0 255
0.124831132591 0.107746168971 0.235386967659 0 0 255
0.0684828534722 0.108242385089 0.211064741015 0 0 255
-0.00560984574258 0.109260730445 0.219042181969 0 0 255
0.0683132782578 0.107833184302 0.221320256591 0 0 255
0.0660583600402 0.108255811036 0.210217446089 0 0 255
-0.118424765766 0.108584195375 0.212346225977 0 0 255
0.0694021806121 0.106034591794 -0.175662204623 0 0 255
0.0714594945312 0.108199723065 0.212763145566 0 0 255
0.0664171427488 0.107788749039 0.222039118409 0 0 255
0.12687496841 0.106820039451 0.209947615862 0 0 255
0.110721088946 0.106245271862 -0.172276541591 0 0 255
0.0703224167228 0.108027890325 0.216845810413 0 0 255
0.0506397336721 0.105974391103 -0.128930926323 0 0 255
0.0746556967497 0.106429345906 0.208798348904 0 0 255
-0.0456561408937 0.108986578882 -0.126603260636 0 0 255
0.0761834606528 0.108379200101 0.209242343903 0 0 255
0.0963306725025 0.106583461165 0.209477931261 0 0 255
0.121938444674 0.107637122273 0.237521603703 0 0 255
0.0542867109179 0.105901896954 -0.126341223717 0 0 255
-0.118041567504 0.109518438578 0.238091558218 0 0 255
0.0781957656145 0.108336620033 0.210736036301 0 0 255
-0.119314260781 0.109510101378 0.238033801317 0 0 255
0.121731780469 0.10758356005 0.238825082779 0 0 255
0.128620386124 0.106454871595 0.219498381019 0 0 255
-0.0373383052647 0.109297648072 -0.132678478956 0 0 255
0.0765707939863 0.107662037015 0.227359995246 0 0 255
0.128173291683 0.105739720166 0.237389981747 0 0 255
0.127199217677 0.107616394758 0.239148586988 0 0 255
-0.0439496040344 0.108482740819 -0.162734031677 0 0 255
0.0982722491026 0.10657223314 0.210168406367 0 0 255
0.0748963877559 0.108377806842 0.209006860852 0 0 255
-0.00842604320496 0.109127618372 0.221797972918 0 0 255
0.249769330025 0.103127710521 0.279476135969 0 0 255
-0.214207857847 0.15345607698 -0.0513980165124 0 0 255
-0.0594495050609 0.109090298414 0.212012812495 0 0 255
-0.0615082271397 0.109062753618 0.212272882462 0 0 255
0.0862592309713 0.107383452356 0.236402481794 0 0 255
-0.0596797801554 0.108852244914 0.217951476574 0 0 255
-0.0400966443121 0.109083473682 0.216251865029 0 0 255
-0.00459574721754 0.10914067924 0.222274616361 0 0 255
-0.058306042105 0.108810849488 0.219281241298 0 0 255
-0.209596976638 0.149045541883 -0.0378274321556 0 0 255
-0.0603270605206 0.10912964493 0.210838854313 0 0 255
-0.0559839010239 0.108748435974 0.221338823438 0 0 255
0.109568670392 0.106115482748 -0.169254675508 0 0 255
-0.0815842151642 0.108757890761 0.215720757842 0 0 255
0.109301909804 0.106387354434 -0.176148176193 0 0 255
0.121820732951 0.106773026288 0.210067823529 0 0 255
0.129101276398 0.106316871941 0.223070055246 0 0 255
0.0839475393295 0.107402198017 0.235445141792 0 0 255
-0.0502698160708 0.108368344605 0.23209901154 0 0 255
-0.0337112508714 0.10851676017 0.231846541166 0 0 255
-0.0631879419088 0.108264990151 0.23198325932 0 0 255
0.051157746464 0.10735733062 -0.163602173328 0 0 255
-0.21163828671 0.151604473591 -0.0534517914057 0 0 255
0.0166464205831 0.107052847743 0.279246777296 0 0 255
