ply
format ascii 1.0
comment https://github.com/EricCJoyce
element vertex 305
property float x
property float y
property float z
property uchar red
property uchar green
property uchar blue
end_header
0.0615370310843 0.0370949693024 0.227390989661 0 0 255
0.0610877424479 0.0369168408215 0.229566738009 0 0 255
0.0982539951801 0.0378661453724 0.225857928395 0 0 255
-0.0433878898621 0.0418202616274 -0.213939443231 0 0 255
0.0612994022667 0.0376656129956 0.232764735818 0 0 255
0.11066237092 0.0377855114639 0.221814274788 0 0 255
0.127610504627 0.0385978408158 0.240222841501 0 0 255
0.100665941834 0.0376677773893 0.246698096395 0 0 255
0.112118959427 0.0379872955382 0.234706819057 0 0 255
0.104537822306 0.0382800064981 0.225792750716 0 0 255
0.0968108102679 0.0381793230772 0.225257769227 0 0 255
0.104505822062 0.0373226627707 0.226387828588 0 0 255
0.0975065305829 0.0371025279164 0.221801817417 0 0 255
0.115665577352 0.0380000919104 0.228161022067 0 0 255
0.101630032063 0.0383176468313 0.247539147735 0 0 255
0.0619575306773 0.0375709943473 0.224663227797 0 0 255
0.0843363776803 0.0374406054616 0.223753660917 0 0 255
0.099926404655 0.0383566655219 0.24660217762 0 0 255
0.0964976251125 0.03786733374 0.226759299636 0 0 255
0.097734875977 0.037440314889 0.245234549046 0 0 255
0.1038601771 0.0381158106029 0.236858457327 0 0 255
0.104154072702 0.0381303206086 0.238944038749 0 0 255
-0.0840075463057 0.0430181622505 0.159968018532 0 0 255
0.136552929878 0.039022937417 0.237582936883 0 0 255
0.110174313188 0.0387313067913 0.233585759997 0 0 255
0.0600357167423 0.0378193296492 0.235518187284 0 0 255
0.111784569919 0.0386301130056 0.233632534742 0 0 255
0.0943417772651 0.0378222204745 0.225195154548 0 0 255
0.0582567900419 0.0375813618302 0.22097364068 0 0 255
0.0952110663056 0.0381886847317 0.227250188589 0 0 255
-0.084180764854 0.0427726656199 0.161707118154 0 0 255
-0.151330143213 0.0177238564938 0.191039383411 0 0 255
0.105358168483 0.0381417423487 0.233651444316 0 0 255
-0.0601496845484 0.196253433824 0.145528510213 0 0 255
-0.150921180844 0.0154279600829 0.194170817733 0 0 255
0.105336017907 0.0384387820959 0.235657244921 0 0 255
-0.150750175118 0.0131666446105 0.223644033074 0 0 255
-0.0450508072972 0.0415890775621 -0.211694642901 0 0 255
0.104348301888 0.0377752520144 0.234723925591 0 0 255
-0.150299727917 -0.0317858420312 0.201091662049 0 0 255
-0.0216329917312 0.173156157136 0.185755193233 0 0 255
0.0958703309298 0.0377287119627 0.23800124228 0 0 255
0.116808235645 0.0376758985221 0.246845588088 0 0 255
0.155564829707 0.0373577103019 0.237847551703 0 0 255
0.104876741767 0.0382853038609 0.238248616457 0 0 255
0.0834018737078 0.0380363315344 0.224965915084 0 0 255
0.0987673699856 0.0375803597271 0.243881762028 0 0 255
0.117428347468 0.0382209084928 0.224542707205 0 0 255
0.0823509767652 0.0373414158821 0.22561955452 0 0 255
-0.0540090724826 0.0423642769456 -0.20476923883 0 0 255
0.0831758901477 0.0379303880036 0.223886907101 0 0 255
-0.0715441778302 0.196701511741 0.141184970737 0 0 255
0.15510828793 0.0374915152788 0.239139348269 0 0 255
0.0568696297705 0.0370650179684 0.238144755363 0 0 255
0.128671556711 0.0384882353246 0.24006998539 0 0 255
0.0818090811372 0.0381311550736 0.225946635008 0 0 255
-0.0874867066741 0.0431322306395 0.137860834599 0 0 255
-0.150919541717 0.0118507733569 0.224454432726 0 0 255
0.0934181958437 0.0439227931201 0.156458064914 0 0 255
-0.150588676333 0.00998669210821 0.221611708403 0 0 255
0.115802876651 0.0386184379458 0.236493051052 0 0 255
0.116422340274 0.0387608632445 0.24649913609 0 0 255
0.085128121078 0.0370616875589 0.223144322634 0 0 255
0.0816101357341 0.193032562733 0.140559077263 0 0 255
-0.0657608062029 0.198489144444 0.150118067861 0 0 255
0.158159062266 0.0349904224277 0.235947847366 0 0 255
0.0749965682626 0.0368911065161 0.237064599991 0 0 255
0.0989364162087 0.0382648296654 0.247401311994 0 0 255
0.0731353238225 0.037592407316 0.223770081997 0 0 255
0.110183604062 0.0382663086057 0.225972056389 0 0 255
0.0962692126632 0.0375243611634 0.229292452335 0 0 255
0.155440568924 0.037520904094 0.236791446805 0 0 255
-0.0715977177024 0.196796685457 0.139591470361 0 0 255
-0.069131501019 0.197476923466 0.1495436728 0 0 255
0.11449316144 0.0378447733819 0.233699277043 0 0 255
-0.150786519051 -0.0109234564006 0.194749742746 0 0 255
0.110165692866 0.038335558027 0.23926538229 0 0 255
0.0809003189206 0.0375225394964 0.226607650518 0 0 255
-0.0716876164079 0.196440592408 0.14948131144 0 0 255
-0.150923758745 -0.0135465599597 0.197797596455 0 0 255
-0.0597260259092 0.196866646409 0.147846400738 0 0 255
-0.149972677231 -0.034848459065 0.198858395219 0 0 255
0.159122750163 0.0332184433937 0.237357854843 0 0 255
0.12349703908 0.0381298027933 0.243310928345 0 0 255
-0.083729237318 0.0429356992245 0.163114845753 0 0 255
0.0745131671429 0.0372851938009 0.238090693951 0 0 255
0.0795878916979 0.196661666036 0.146676242352 0 0 255
-0.0678065046668 0.198422119021 0.138826265931 0 0 255
-0.065709836781 0.198135659099 0.142777100205 0 0 255
0.113234631717 0.0383955612779 0.238385781646 0 0 255
-0.0646393671632 0.19889780879 0.145638659596 0 0 255
0.157362401485 0.0356444679201 0.221128642559 0 0 255
-0.0613599307835 0.198110789061 0.144020333886 0 0 255
-0.0839077681303 0.0454857982695 0.144279122353 0 0 255
0.0735380649567 0.196406707168 0.167717143893 0 0 255
0.100379146636 0.0401620939374 0.12073726207 0 0 255
-0.0714841112494 0.0414452962577 0.189184129238 0 0 255
0.0836766436696 0.0372910574079 0.229428038001 0 0 255
-0.149856626987 -0.0336709730327 0.199365749955 0 0 255
0.0383065268397 0.217481032014 0.104348897934 0 0 255
0.0587297901511 0.036898303777 0.236723452806 0 0 255
0.116828948259 0.0378187373281 0.234661668539 0 0 255
0.117392599583 0.0385961532593 0.225698709488 0 0 255
0.122888199985 0.0381008274853 0.242347225547 0 0 255
0.114690415561 0.0381932258606 0.232620745897 0 0 255
-0.0568881705403 0.17351526022 0.135055571795 0 0 255
0.10034301132 0.0409741178155 0.123985178769 0 0 255
-0.150525480509 0.00437485799193 0.220541670918 0 0 255
0.0569620765746 0.0381390228868 0.22241961956 0 0 255
-0.0829757675529 0.0431404747069 0.162038609385 0 0 255
0.098925717175 0.0384140685201 0.165126815438 0 0 255
0.0943689197302 0.0381094962358 0.236115500331 0 0 255
-0.150322020054 -0.0141268055886 0.195316419005 0 0 255
0.0397533029318 0.214433431625 0.10486202687 0 0 255
0.105786703527 0.0385419540107 0.246076375246 0 0 255
-0.0721443742514 0.196132615209 0.143701031804 0 0 255
0.105032064021 0.0384445004165 0.22739623487 0 0 255
0.009301899001 0.199572578073 0.0954456180334 0 0 255
0.0779409706593 0.194390639663 0.158101469278 0 0 255
0.0902726426721 0.0395245589316 0.176900565624 0 0 255
0.159159064293 0.0332355313003 0.224543750286 0 0 255
0.0810740590096 0.194822117686 0.142416998744 0 0 255
-0.0666963383555 0.19759221375 0.148875936866 0 0 255
0.0772147774696 0.0380232296884 0.235178977251 0 0 255
0.117049299181 0.0380382053554 0.232148647308 0 0 255
-0.0674056485295 0.197802886367 0.146204605699 0 0 255
0.0641259402037 0.0368733517826 0.228977531195 0 0 255
0.113483339548 0.0380924493074 0.230509266257 0 0 255
0.118164300919 0.03799296543 0.232987195253 0 0 255
0.123299457133 0.0383493639529 0.239070892334 0 0 255
0.0928977504373 0.0371517278254 0.236891612411 0 0 255
0.0735208541155 0.0370077081025 0.220494404435 0 0 255
0.0790236368775 0.192625999451 0.157711684704 0 0 255
0.0768106728792 0.0374632328749 0.224785238504 0 0 255
0.0814808607101 0.195042029023 0.140740826726 0 0 255
-0.08297855407 0.0419182814658 0.164875000715 0 0 255
0.0791854783893 0.0370339825749 0.234799832106 0 0 255
-0.151018932462 0.00277324067429 0.193858847022 0 0 255
-0.0601919405162 0.172963455319 0.131527394056 0 0 255
0.0259181205183 0.202720522881 0.103249438107 0 0 255
0.139081731439 0.0381370447576 0.230248510838 0 0 255
0.111238405108 0.0380242429674 0.227250367403 0 0 255
0.10905265063 0.0386262945831 0.241459161043 0 0 255
0.100902624428 0.0384102240205 0.161812439561 0 0 255
0.0338721871376 0.213300436735 0.10836610198 0 0 255
0.0816296935081 0.191986873746 0.148953586817 0 0 255
0.0569240786135 0.0373244285583 0.223613470793 0 0 255
-0.14984048903 -0.0432054176927 0.189634561539 0 0 255
0.0788297131658 0.195167005062 0.155482545495 0 0 255
-0.0578988343477 0.194409370422 0.13118006289 0 0 255
-0.0759888961911 0.0429487787187 0.179023712873 0 0 255
0.108059264719 0.0385952219367 0.248573184013 0 0 255
0.0692836344242 0.0367061048746 0.236665770411 0 0 255
0.0400975421071 0.211901292205 0.106078349054 0 0 255
-0.150971129537 0.00614254688844 0.195126220584 0 0 255
0.0800160393119 0.0375912450254 0.22355876863 0 0 255
0.0976415276527 0.0399530418217 0.158211648464 0 0 255
0.0352875478566 0.21534319222 0.107319518924 0 0 255
0.0783574432135 0.0378274284303 0.235242694616 0 0 255
0.0994993001223 0.0415641702712 0.122924678028 0 0 255
0.140004098415 0.0390065163374 0.227243304253 0 0 255
-0.0702420398593 0.0410234853625 0.189605906606 0 0 255
0.0771948248148 0.194221496582 0.159876123071 0 0 255
0.0450155064464 0.201527699828 0.0996102243662 0 0 255
0.114960663021 0.038244497031 0.248332589865 0 0 255
0.0358969792724 0.216458916664 0.105832181871 0 0 255
-0.035402122885 0.19515915215 0.186224594712 0 0 255
0.114368148148 0.0376321040094 0.22496701777 0 0 255
0.116343379021 0.0380396917462 0.220827296376 0 0 255
0.145079061389 0.0386376157403 0.237816348672 0 0 255
-0.151113241911 0.00716882618144 0.195551231503 0 0 255
0.0706706568599 0.176337778568 0.120174452662 0 0 255
0.0592024512589 0.0373928770423 0.234954044223 0 0 255
-0.150233447552 -0.0313966535032 0.196748003364 0 0 255
0.158166751266 0.0350649394095 0.222670182586 0 0 255
0.0952794030309 0.0371694415808 0.222205087543 0 0 255
0.0767353177071 0.037624783814 0.237164095044 0 0 255
0.0782735496759 0.0377840958536 0.224224582314 0 0 255
-0.0598271042109 0.197478219867 0.149281933904 0 0 255
-0.0582026541233 0.17376871407 0.131712138653 0 0 255
0.120198257267 0.0383268967271 0.241149932146 0 0 255
-0.151150077581 -0.00993139110506 0.208206906915 0 0 255
0.0644375756383 0.0378462560475 0.219603925943 0 0 255
0.0816656127572 0.193124502897 0.139495909214 0 0 255
0.0781127288938 0.195489481091 0.156263768673 0 0 255
0.139994055033 0.0388192124665 0.229438111186 0 0 255
0.103935234249 0.0388550311327 0.138422966003 0 0 255
-0.150935292244 0.00147496676072 0.210669443011 0 0 255
-0.0683892145753 0.0420239269733 0.191253483295 0 0 255
-0.150361523032 -0.0127831036225 0.192568585277 0 0 255
-0.0725736692548 0.195364251733 0.150003746152 0 0 255
0.157772302628 0.0350281894207 0.225478127599 0 0 255
0.123019814491 0.0376320034266 0.23434895277 0 0 255
0.0351588241756 0.217525109649 0.104688495398 0 0 255
-0.0579788088799 0.17362010479 0.133518770337 0 0 255
0.0798432677984 0.192880138755 0.153353393078 0 0 255
0.0268588401377 0.203679531813 0.103346280754 0 0 255
0.0200993735343 0.200734809041 0.103672623634 0 0 255
0.101333484054 0.040182415396 0.12710891664 0 0 255
0.0910995155573 0.040424220264 0.174283251166 0 0 255
-0.0321311838925 0.170360341668 0.169217199087 0 0 255
0.141923502088 0.0384115837514 0.234763532877 0 0 255
-0.0429636649787 0.040823366493 -0.217647984624 0 0 255
0.0559726506472 0.0377893224359 0.233533233404 0 0 255
-0.0410582832992 0.172011092305 0.162132114172 0 0 255
0.117910884321 0.038230791688 0.241634219885 0 0 255
0.112269066274 0.037794765085 0.223528057337 0 0 255
0.0537567250431 0.174080193043 0.16240952909 0 0 255
-0.150585159659 -0.0180074982345 0.198779821396 0 0 255
0.132668703794 0.0385227948427 0.22251047194 0 0 255
0.118810862303 0.0383281894028 0.239821970463 0 0 255
0.0950360894203 0.0380199477077 0.226171717048 0 0 255
0.043322455138 0.199386462569 0.0765845105052 0 0 255
0.118609413505 0.0380823388696 0.232069581747 0 0 255
0.11802624166 0.0378998033702 0.222544372082 0 0 255
0.0558276996017 0.0380690842867 0.228944137692 0 0 255
0.0897622779012 0.0412601903081 0.17313618958 0 0 255
0.120593242347 0.0377346277237 0.235569134355 0 0 255
0.115469612181 0.0384663082659 0.238184288144 0 0 255
-0.142150193453 0.0385613031685 -0.0272199362516 0 0 255
0.115367755294 0.0384982973337 0.246477290988 0 0 255
-0.0327244736254 0.197136715055 0.186780557036 0 0 255
-0.0888921618462 0.0369388014078 0.175624892116 0 0 255
0.0703608766198 0.176327779889 0.117939896882 0 0 255
-0.0571613311768 0.195968285203 0.130513995886 0 0 255
0.1198611781 0.0377380140126 0.236461609602 0 0 255
-0.0266389790922 0.171673968434 0.152569979429 0 0 255
0.044533804059 0.201026186347 0.100620493293 0 0 255
-0.0459276549518 0.195102259517 0.172428846359 0 0 255
-0.0119294244796 0.201658114791 0.105070360005 0 0 255
0.0743777751923 0.196599379182 0.165692687035 0 0 255
-0.0482662729919 0.171608045697 0.171361014247 0 0 255
-0.151268601418 0.0211066734046 0.220827907324 0 0 255
-0.0109865386039 0.200949907303 0.104357682168 0 0 255
0.0323144011199 0.214740484953 0.107147350907 0 0 255
0.152152195573 0.0382949486375 0.223395645618 0 0 255
0.0800096467137 0.194901138544 0.151256084442 0 0 255
0.151293173432 0.0380781441927 0.231029346585 0 0 255
-0.0218981858343 0.196083396673 0.125554889441 0 0 255
-0.0401035957038 0.20364934206 0.108292013407 0 0 255
0.126761421561 0.0388749688864 0.230303928256 0 0 255
-0.151349022985 -0.000828471500427 0.2076292485 0 0 255
0.0691364631057 0.0374395102262 0.229417294264 0 0 255
-0.0121355745941 0.201308786869 0.107363209128 0 0 255
0.0821454972029 0.0368323512375 0.231433600187 0 0 255
0.141394764185 0.0386048704386 0.232346966863 0 0 255
-0.0510457009077 0.0438995435834 -0.205980837345 0 0 255
0.12103330344 0.0374488607049 0.223661616445 0 0 255
-0.0140185141936 0.197606667876 0.196411237121 0 0 255
0.0506363585591 0.172950074077 0.171927914023 0 0 255
0.075748860836 0.0367317311466 0.234257429838 0 0 255
-0.0653296560049 0.199066743255 0.14346241951 0 0 255
0.0370261259377 0.218871533871 0.10091894865 0 0 255
0.0676347613335 0.0374482795596 0.236675545573 0 0 255
0.0364422425628 0.213693752885 0.108412973583 0 0 255
-0.0112173445523 0.195148959756 0.120563186705 0 0 255
0.10431919992 0.0377748645842 0.243161052465 0 0 255
0.0400362573564 0.173436149955 0.151694625616 0 0 255
0.159497737885 0.035136025399 0.250993460417 0 0 255
0.0661513954401 0.0379422865808 0.237685099244 0 0 255
-0.0406464487314 0.204483062029 0.108047135174 0 0 255
0.0463618114591 0.199487566948 0.0779142007232 0 0 255
-0.0255395863205 0.172267526388 0.151693746448 0 0 255
0.0828555971384 0.0372607782483 0.230467259884 0 0 255
-0.035829950124 0.194229826331 0.185505226254 0 0 255
0.0972866415977 0.0393870323896 0.160561770201 0 0 255
0.0790536254644 0.0370778553188 0.222711458802 0 0 255
0.0358667597175 0.212830737233 0.109093956649 0 0 255
0.142139747739 0.0385992303491 0.231318324804 0 0 255
-0.015845598653 0.198680385947 0.196421533823 0 0 255
-0.0531870611012 0.0510098934174 -0.209489062428 0 0 255
0.111209005117 0.0387879423797 0.2415753901 0 0 255
-0.00929121300578 0.198659777641 0.117986187339 0 0 255
0.152926057577 0.0382540486753 0.231545165181 0 0 255
0.0671143680811 0.0374129675329 0.223028227687 0 0 255
-0.0584004037082 0.0527108535171 -0.207906961441 0 0 255
0.129979506135 0.0385396890342 0.230404287577 0 0 255
0.123048886657 0.0379052683711 0.231137692928 0 0 255
0.0249957833439 0.173446148634 0.13707152009 0 0 255
-0.0108208591118 0.197992473841 0.198206812143 0 0 255
0.0770838558674 0.195935368538 0.15757215023 0 0 255
0.0787800624967 0.0370056070387 0.225178033113 0 0 255
-0.0501171275973 0.199084863067 0.10316940397 0 0 255
0.0674218311906 0.0370972715318 0.229302674532 0 0 255
-0.061396099627 0.182415291667 0.157932296395 0 0 255
-0.0407262146473 0.203750997782 0.105347208679 0 0 255
0.0967250913382 0.0382376015186 0.22409299016 0 0 255
0.107620753348 0.0385290086269 0.246058419347 0 0 255
0.137326136231 0.0386930592358 0.234755381942 0 0 255
0.0361312031746 0.207076266408 0.0845600739121 0 0 255
0.149346187711 0.0387839898467 0.220978707075 0 0 255
0.0315678864717 0.20545783639 0.107230052352 0 0 255
0.0813295543194 0.037504337728 0.228935882449 0 0 255
-0.009781120345 0.193360894918 0.119276873767 0 0 255
0.0919145941734 0.040144726634 0.17242795229 0 0 255
-0.0515372306108 0.197536602616 0.125934302807 0 0 255
0.0387807823718 0.211041420698 0.0864273384213 0 0 255
-0.138665795326 0.038289129734 -0.0267610866576 0 0 255
0.0446005500853 0.172434911132 0.157226383686 0 0 255
0.0469221435487 0.200355783105 0.102393768728 0 0 255
-0.0311331301928 0.170904070139 0.170044541359 0 0 255
0.0218658018857 0.173382952809 0.123771518469 0 0 255
-0.069039709866 0.0409980751574 0.191095039248 0 0 255
-0.0543887093663 0.198105737567 0.100300356746 0 0 255
-0.0402226410806 0.171420320868 0.175825789571 0 0 255
