ply
format ascii 1.0
comment https://github.com/EricCJoyce
element vertex 295
property float x
property float y
property float z
property uchar red
property uchar green
property uchar blue
end_header
0.117677487433 0.24990901351 0.733571052551 0 0 255
0.113149136305 0.246579095721 0.724652707577 0 0 255
0.115640617907 0.250149637461 0.729900836945 0 0 255
0.119273886085 0.246191576123 0.730567276478 0 0 255
0.116394683719 0.24632948637 0.728461384773 0 0 255
-0.12413469702 -0.121908918023 0.36683934927 0 0 255
-0.127587273717 -0.124008528888 0.368536710739 0 0 255
-0.125457823277 -0.122671701014 0.366796284914 0 0 255
0.11195563525 0.24654006958 0.725245893002 0 0 255
-0.121287196875 -0.124620422721 0.364184588194 0 0 255
-0.133375659585 0.371551811695 0.549839138985 0 0 255
-0.121688582003 -0.120582640171 0.368309408426 0 0 255
0.108102425933 0.247132465243 0.716211557388 0 0 255
-0.122263588011 -0.125310271978 0.366256833076 0 0 255
-0.130558684468 0.370036154985 0.552276015282 0 0 255
-0.0650991946459 0.111620754004 0.474137991667 0 0 255
-0.137262687087 0.369978994131 0.551629364491 0 0 255
-0.131885617971 0.371328055859 0.553251624107 0 0 255
0.0983476191759 0.387200057507 0.546557486057 0 0 255
-0.136312305927 0.370697289705 0.54883646965 0 0 255
0.110460750759 0.243112564087 0.717818915844 0 0 255
0.112479008734 0.235410228372 0.71588653326 0 0 255
-0.132040515542 0.371489584446 0.550789117813 0 0 255
0.0972144752741 0.391334474087 0.546950876713 0 0 255
0.127992942929 0.235115408897 0.727852582932 0 0 255
-0.126586064696 0.209041297436 0.401482701302 0 0 255
-0.128752708435 0.212342262268 0.399867415428 0 0 255
0.121676243842 0.246099725366 0.731970489025 0 0 255
-0.129252016544 -0.124974600971 0.368587762117 0 0 255
-0.134999275208 0.371407538652 0.549653410912 0 0 255
-0.123860619962 -0.123804576695 0.40088135004 0 0 255
-0.128620833158 0.21228556335 0.402071356773 0 0 255
-0.134103253484 0.367734372616 0.548356354237 0 0 255
-0.0687807798386 0.1047552526 0.473470777273 0 0 255
0.125733077526 0.236401677132 0.728153884411 0 0 255
-0.131420895457 0.368971526623 0.549439191818 0 0 255
-0.130878701806 0.371494144201 0.550721228123 0 0 255
-0.0760888308287 -0.32533377409 0.413208931684 0 0 255
0.122350223362 -0.219150304794 0.548543274403 0 0 255
-0.131266281009 0.370542675257 0.550906062126 0 0 255
-0.0938737466931 -0.301158428192 0.408696055412 0 0 255
0.0838035419583 -0.327170491219 0.519711971283 0 0 255
-0.0964407473803 -0.294672220945 0.401933372021 0 0 255
-0.133298680186 0.372223287821 0.552436888218 0 0 255
0.0968545600772 -0.222370415926 0.555584788322 0 0 255
0.0905195623636 -0.22590278089 0.553394317627 0 0 255
-0.0959943085909 -0.170142635703 0.427541971207 0 0 255
-0.140419006348 0.211245775223 0.381089061499 0 0 255
-0.127488985658 0.212981909513 0.401381731033 0 0 255
0.219961062074 0.287121653557 0.646753787994 0 0 255
-0.0750951394439 -0.150143146515 0.485105544329 0 0 255
-0.0900020450354 -0.178989082575 0.439642071724 0 0 255
0.0431838408113 -0.200747892261 0.581395208836 0 0 255
-0.0958493947983 -0.183155760169 0.418577939272 0 0 255
0.124143444002 0.233225792646 0.722145617008 0 0 255
0.144267395139 0.239692047238 0.658006310463 0 0 255
0.204985320568 0.282217442989 0.646824657917 0 0 255
-0.083817511797 -0.183268114924 0.449525177479 0 0 255
0.120522551239 0.246056109667 0.732633650303 0 0 255
-0.0753140673041 -0.325134575367 0.404073387384 0 0 255
0.0603882372379 -0.194398313761 0.5775796175 0 0 255
0.0973922535777 -0.221094876528 0.539601325989 0 0 255
-0.0831942260265 -0.316046535969 0.403977245092 0 0 255
-0.0976388901472 -0.185201048851 0.398249745369 0 0 255
0.163141712546 0.270359873772 0.645374834538 0 0 255
-0.0681336373091 0.418057143688 0.49742859602 0 0 255
-0.0260489992797 -0.167640447617 0.567242264748 0 0 255
-0.10363252461 -0.17396363616 0.416221231222 0 0 255
-0.0613472536206 -0.336828172207 0.391240358353 0 0 255
0.0769625008106 -0.218130007386 0.521922230721 0 0 255
-0.13109588623 0.212949082255 0.367349117994 0 0 255
-0.0207316819578 -0.169343903661 0.567369520664 0 0 255
-0.105664640665 0.392040520906 0.535922110081 0 0 255
0.12500269711 0.238565668464 0.727474689484 0 0 255
-0.0697521418333 0.415350317955 0.501023650169 0 0 255
-0.0953552648425 -0.162257671356 0.438664674759 0 0 255
0.115345142782 0.235182806849 0.71935659647 0 0 255
-0.0794131755829 -0.142828479409 0.48094907403 0 0 255
0.123352989554 -0.219845563173 0.550166249275 0 0 255
-0.100734360516 -0.173950299621 0.392372697592 0 0 255
-0.0804390758276 -0.172559216619 0.462235063314 0 0 255
0.0926628261805 -0.225335910916 0.564545810223 0 0 255
-0.0612185895443 -0.162820130587 0.486884266138 0 0 255
-0.126316010952 0.211243733764 0.366544514894 0 0 255
0.110387824476 0.244626864791 0.694737970829 0 0 255
0.090636216104 -0.224662542343 0.533959388733 0 0 255
-0.106565177441 0.393291503191 0.534456312656 0 0 255
-0.00594580871984 -0.168885871768 0.567785561085 0 0 255
-0.0839817002416 -0.223356425762 0.485888391733 0 0 255
0.0895104631782 -0.225845336914 0.542768657207 0 0 255
-0.0683590397239 -0.332903385162 0.393109112978 0 0 255
-0.0917038396001 -0.1654484272 0.453873127699 0 0 255
-0.0684707686305 0.422103643417 0.497051924467 0 0 255
-0.0966651067138 -0.16566388309 0.433621883392 0 0 255
0.0939559489489 0.382360428572 0.615913331509 0 0 255
-0.00634862994775 -0.16847205162 0.565235435963 0 0 255
-0.131515800953 0.212554097176 0.369869202375 0 0 255
0.00018013609224 -0.172672644258 0.571201503277 0 0 255
0.124700024724 -0.220645919442 0.550461351871 0 0 255
0.130696207285 0.238322675228 0.731186032295 0 0 255
0.125894024968 0.23413848877 0.694976747036 0 0 255
0.126243412495 -0.273860543966 0.267955690622 0 0 255
-0.0078385360539 -0.17075355351 0.568742752075 0 0 255
-0.0647799447179 0.421362698078 0.503191232681 0 0 255
-0.0838457792997 -0.15787731111 0.474283009768 0 0 255
0.153941944242 0.261773437262 0.650243878365 0 0 255
-0.142487466335 0.212067455053 0.422529935837 0 0 255
-0.0988909378648 -0.164248734713 0.431827008724 0 0 255
-0.0996835306287 -0.180069223046 0.406331568956 0 0 255
-0.0647831708193 0.423809438944 0.504133939743 0 0 255
-0.0097473282367 -0.167274996638 0.56768476963 0 0 255
0.097160987556 -0.228768676519 0.570919513702 0 0 255
-0.13151524961 -0.213801458478 0.545854449272 0 0 255
-0.0320537127554 -0.171956956387 0.569080293179 0 0 255
-0.100072331727 -0.176201939583 0.418736517429 0 0 255
-0.0167447887361 -0.354718536139 0.343320161104 0 0 255
-0.0159350186586 -0.131327480078 0.511740088463 0 0 255
0.127768516541 0.253198117018 0.743119060993 0 0 255
0.112787991762 0.237180620432 0.688902676105 0 0 255
0.0898860543966 -0.243736669421 0.522522747517 0 0 255
-0.0966189876199 -0.182403564453 0.414248198271 0 0 255
-0.0833630785346 -0.222749903798 0.481767237186 0 0 255
-0.100267723203 -0.269265502691 0.393684536219 0 0 255
0.126849934459 0.260921835899 0.744726598263 0 0 255
0.236166611314 -0.237549439073 -0.631408154964 0 0 255
-0.496595859528 -0.274200379848 -0.639129042625 0 0 255
-0.128015398979 -0.229603201151 0.523922979832 0 0 255
0.215638980269 -0.231334164739 -0.628425598145 0 0 255
-0.499043136835 -0.26847204566 -0.636176943779 0 0 255
-0.0909999012947 -0.1529918015 0.463758796453 0 0 255
-0.0106665175408 -0.170811325312 0.569696843624 0 0 255
-0.0876914933324 -0.150979012251 0.47214537859 0 0 255
-0.0959611088037 -0.192744523287 0.427189290524 0 0 255
0.114244952798 0.237104594707 0.690063297749 0 0 255
0.0910806134343 -0.228739753366 0.556356430054 0 0 255
0.22586633265 -0.232282981277 -0.628103673458 0 0 255
-0.0633244216442 0.425379395485 0.505163371563 0 0 255
-0.075909152627 0.429858267307 0.537979364395 0 0 255
0.103065565228 0.356417745352 0.608955323696 0 0 255
-0.0751101896167 -0.330468326807 0.413868874311 0 0 255
0.124407760799 0.232911378145 0.694322645664 0 0 255
-0.0808834210038 -0.318906158209 0.425458848476 0 0 255
-0.0938523411751 -0.167718499899 0.439647376537 0 0 255
-0.0963750779629 -0.149209231138 0.454272806644 0 0 255
-0.10671698302 -0.138138696551 0.446303158998 0 0 255
0.019242817536 0.261749327183 0.665749430656 0 0 255
0.219083890319 0.410528361797 0.762805402279 0 0 255
0.0937375128269 -0.226328358054 0.564437866211 0 0 255
0.222635418177 0.274954199791 0.669002473354 0 0 255
0.112742841244 0.244400277734 0.698194622993 0 0 255
0.0895948931575 0.356864511967 0.471868246794 0 0 255
-0.0960608944297 -0.145466595888 0.462697386742 0 0 255
0.106093764305 0.25075122714 0.720718860626 0 0 255
0.125972703099 -0.213283255696 -0.393139213324 0 0 255
-0.102142959833 -0.178512975574 0.404453009367 0 0 255
0.076529212296 -0.0112586058676 0.413660675287 0 0 255
-0.126428484917 -0.227424263954 0.527275383472 0 0 255
-0.292858481407 -0.256647497416 -0.636242747307 0 0 255
-0.100270889699 -0.170441359282 0.402875810862 0 0 255
-0.0590975210071 -0.184002190828 0.521577060223 0 0 255
0.0924608334899 -0.240841731429 0.524452149868 0 0 255
-0.0965911149979 -0.189841523767 0.391374081373 0 0 255
-0.0623400695622 0.419174849987 0.599733829498 0 0 255
0.0711567848921 -0.223697900772 0.520288050175 0 0 255
0.0809368938208 -0.102018870413 0.38232678175 0 0 255
-0.0706852972507 0.434488326311 0.545316278934 0 0 255
-0.128543302417 -0.213899463415 0.54510217905 0 0 255
0.0884021371603 0.357444643974 0.473421007395 0 0 255
0.21994163096 0.277107208967 0.660617470741 0 0 255
0.0913996174932 -0.22961704433 0.566129982471 0 0 255
0.22829310596 -0.236219123006 -0.627772808075 0 0 255
-0.108923010528 -0.154690355062 0.442662984133 0 0 255
-0.107917457819 0.392416030169 0.53600102663 0 0 255
0.111095428467 -0.123339645565 0.373136281967 0 0 255
-0.0713351219893 -0.16095238924 0.479328155518 0 0 255
-0.131410330534 0.337616384029 0.544950723648 0 0 255
0.111913062632 0.24449236691 0.696789860725 0 0 255
-0.044982843101 0.448060363531 0.53904157877 0 0 255
-0.0741443932056 0.0767132714391 0.466342777014 0 0 255
-0.0785698890686 -0.384358793497 -0.518246769905 0 0 255
-0.0701203793287 0.43487238884 0.539463281631 0 0 255
-0.104902140796 -0.143643736839 0.445363372564 0 0 255
-0.111346289515 0.393589049578 0.558579027653 0 0 255
0.0642907693982 -0.101685717702 0.449729442596 0 0 255
0.0837852731347 -0.0995929017663 0.388639301062 0 0 255
0.212194889784 -0.325876355171 -0.592976152897 0 0 255
-0.0993996709585 -0.176830545068 0.422113984823 0 0 255
-0.0748332664371 -0.158750861883 0.476825267076 0 0 255
-0.0610218606889 0.423509150743 0.506020665169 0 0 255
-0.108470126987 0.358459204435 0.494341850281 0 0 255
-0.643405377865 -0.393665283918 -0.631688833237 0 0 255
-0.112944543362 -0.233158901334 0.520462393761 0 0 255
-0.0829432085156 -0.320616185665 0.402606934309 0 0 255
-0.123959936202 0.371521264315 0.541245281696 0 0 255
-0.0660404711962 0.419128775597 0.600431144238 0 0 255
-0.107709884644 0.394425630569 0.559232473373 0 0 255
0.0835059806705 -0.0992773547769 0.386467367411 0 0 255
-0.109806187451 -0.222974643111 0.531547546387 0 0 255
-0.0620714761317 0.423951566219 0.508347809315 0 0 255
0.206180274487 0.413959413767 0.755946159363 0 0 255
-0.0810440257192 -0.159345835447 0.472129225731 0 0 255
-0.0809447020292 -0.180933848023 0.456931918859 0 0 255
0.0566993840039 -0.197312936187 0.579148292542 0 0 255
-0.1284943223 -0.225749701262 0.524854362011 0 0 255
-0.0926410853863 -0.306018352509 0.403407305479 0 0 255
-0.034209087491 -0.172526612878 0.569990932941 0 0 255
-0.113290697336 -0.229105859995 0.524863958359 0 0 255
-0.0331251323223 -0.167028471828 0.564153552055 0 0 255
0.16133031249 0.266807943583 0.646482646465 0 0 255
-0.0310785975307 -0.190641492605 0.505767583847 0 0 255
0.102778039873 -0.21917553246 0.559423387051 0 0 255
0.236126348376 0.417804211378 0.648605763912 0 0 255
-0.0607553385198 0.441332876682 0.560338616371 0 0 255
0.104003287852 0.375008046627 0.609413027763 0 0 255
-0.063435561955 -0.030131733045 0.476200848818 0 0 255
0.206676006317 0.41674938798 0.756390869617 0 0 255
0.118456095457 -0.130601227283 0.4154984653 0 0 255
-0.103612661362 0.367266178131 0.495865821838 0 0 255
-0.0623891577125 0.439893424511 0.56008630991 0 0 255
-0.0940746292472 -0.198534190655 0.429680496454 0 0 255
0.115040972829 -0.214792072773 0.5467248559 0 0 255
-0.0673982203007 0.416393071413 0.601968944073 0 0 255
0.12236199528 -0.211112752557 -0.39428550005 0 0 255
-0.519847154617 -0.281648278236 -0.471814036369 0 0 255
-0.515689969063 -0.269798099995 -0.474945217371 0 0 255
-0.277910113335 -0.279976218939 -0.492928236723 0 0 255
-0.0777760520577 0.426702588797 0.533949494362 0 0 255
-0.333953857422 -0.247202798724 -0.616584897041 0 0 255
-0.139682635665 0.211482748389 0.384220868349 0 0 255
0.123438484967 -0.212458387017 -0.393402129412 0 0 255
-0.109589464962 0.390452831984 0.560116410255 0 0 255
-0.0530179291964 -0.183529421687 0.520739376545 0 0 255
-0.0735715478659 -0.190909847617 0.572185099125 0 0 255
0.220580264926 -0.261938601732 -0.474435389042 0 0 255
-0.0980037078261 -0.202697724104 0.392911404371 0 0 255
-0.121419966221 -0.228113785386 -0.393256276846 0 0 255
-0.0592631772161 -0.281304061413 -0.48855689168 0 0 255
-0.108482383192 0.370999753475 0.585948646069 0 0 255
-0.0467016324401 0.446629852057 0.539288163185 0 0 255
-0.10951486975 0.362225323915 0.453356921673 0 0 255
-0.0617032311857 0.438119590282 0.560622036457 0 0 255
0.0672362297773 -0.093564979732 0.438696175814 0 0 255
-0.0325157567859 0.448500454426 0.570461928844 0 0 255
-0.103578001261 -0.230339661241 -0.383676588535 0 0 255
0.213586181402 0.286509782076 0.643635869026 0 0 255
0.101313836873 0.346312493086 0.609853446484 0 0 255
0.0706265494227 -0.111520648003 0.472971588373 0 0 255
0.124701961875 0.233036845922 0.692410767078 0 0 255
-0.0710327997804 -0.0116440961137 0.47142842412 0 0 255
-0.115895450115 -0.228900834918 0.525912165642 0 0 255
0.144710600376 0.239233240485 0.660861253738 0 0 255
0.109380252659 -0.220590651035 -0.402244925499 0 0 255
-0.111226595938 0.389027148485 0.560439407825 0 0 255
-0.101048089564 0.365524530411 0.59817802906 0 0 255
0.130183249712 0.224662303925 0.666070699692 0 0 255
0.0260432586074 -0.171884775162 0.537855744362 0 0 255
-0.101973451674 -0.226139634848 -0.392239868641 0 0 255
-0.08984772861 0.418862193823 0.544796407223 0 0 255
-0.0112812994048 -0.128646343946 0.51192009449 0 0 255
-0.516320228577 -0.274592518806 -0.472568571568 0 0 255
-0.0953253507614 -0.194707676768 0.385902732611 0 0 255
-0.00530920038 -0.119873642921 0.509017705917 0 0 255
-0.0729315280914 0.0802322775126 0.470585763454 0 0 255
-0.0723925679922 0.435016661882 0.545008838177 0 0 255
-0.125709921122 -0.225904524326 0.527217745781 0 0 255
0.0977500081062 -0.229220792651 0.572489798069 0 0 255
-0.603171110153 -0.391276657581 -0.477620661259 0 0 255
-0.0689459294081 -0.0195234157145 0.472236216068 0 0 255
0.0979706421494 -0.244020223618 0.524316072464 0 0 255
-0.360379010439 -0.236701235175 -0.594614982605 0 0 255
0.0742419064045 -0.00530150812119 0.412079632282 0 0 255
0.0177205465734 -0.179256752133 0.520898580551 0 0 255
-0.275633722544 -0.290295690298 -0.493503540754 0 0 255
0.201451256871 0.274496346712 0.657024562359 0 0 255
-0.0844781920314 -0.3170799613 0.429040104151 0 0 255
-0.0085154492408 -0.173047333956 0.52537971735 0 0 255
-0.304874718189 -0.247507750988 -0.635415196419 0 0 255
-0.0990886092186 -0.223239287734 -0.392918020487 0 0 255
-0.118441946805 -0.22738045454 0.525250196457 0 0 255
-0.0972985550761 -0.0332894101739 0.42115727067 0 0 255
-0.11684448272 -0.11096522212 0.405139803886 0 0 255
-0.0264138802886 -0.176356181502 0.521311223507 0 0 255
-0.358587175608 -0.240115657449 -0.595741033554 0 0 255
0.104594498873 0.375545650721 0.606171607971 0 0 255
0.00388023955747 0.4105694592 0.730984091759 0 0 255
0.097681812942 -0.103718213737 0.397187769413 0 0 255
0.0681440457702 -0.268766462803 -0.477901250124 0 0 255
-0.113337539136 0.373219639063 0.577504813671 0 0 255
0.0264598168433 -0.172154843807 0.540734231472 0 0 255
0.128092706203 0.228747829795 0.689289391041 0 0 255
0.0505752377212 -0.189526006579 0.52515411377 0 0 255
-0.0576823428273 -0.165071889758 0.489784806967 0 0 255
-0.099533945322 0.370869964361 0.598994910717 0 0 255
0.130106687546 0.227678731084 0.687931418419 0 0 255
-0.00206609698944 0.410373866558 0.72891575098 0 0 255
